ply
format ascii 1.0
element vertex 1468
property float x
property float y
property float z
end_header
572.737179 195.275093 742.2417
572.753704 227.814416 790.488832
572.753704 230.199195 790.488832
572.771484 195.915199 753.17265
572.771484 198.36219 753.17265
572.903326 184.121793 795.334316
572.903326 186.498796 795.334316
572.983582 192.043355 747.202522
572.983582 194.500714 747.202522
573.042937 188.093643 800.167869
573.042937 190.462869 800.167869
573.042937 192.832095 800.167869
573.042937 195.201321 800.167869
573.042937 197.570547 800.167869
573.042937 199.939773 800.167869
573.155092 192.525858 773.854226
573.155092 194.93915 773.854226
573.210893 194.350888 763.03066
573.210893 196.782325 763.03066
573.506443 183.610725 799.16453
573.506443 185.982543 799.16453
573.506443 202.58527 799.16453
573.506443 204.957088 799.16453
573.506443 207.328906 799.16453
573.506443 209.700724 799.16453
573.506443 212.072543 799.16453
573.506443 214.444361 799.16453
573.506443 216.816179 799.16453
573.506443 219.187997 799.16453
573.506443 221.559815 799.16453
573.506443 223.931633 799.16453
573.51107 186.166067 783.612807
573.51107 188.563807 783.612807
573.827001 227.512223 793.323661
573.827001 229.89441 793.323661
573.869075 193.829451 766.926498
573.869075 196.255704 766.926498
574.102885 187.832924 802.98679
574.102885 190.199558 802.98679
574.565438 192.043355 749.087705
574.565438 194.500714 749.087705
574.56806 183.355191 801.98544
574.56806 185.724417 801.98544
574.56806 192.832095 801.98544
574.56806 195.201321 801.98544
574.56806 197.570547 801.98544
574.56806 199.939773 801.98544
574.708582 187.699273 775.705603
574.708582 190.112565 775.705603
574.896961 227.21003 796.154514
574.896961 229.589625 796.154514
575.018196 190.51015 758.961624
575.018196 192.951956 758.961624
575.033234 202.58527 800.98409
575.033234 204.957088 800.98409
575.033234 207.328906 800.98409
575.033234 209.700724 800.98409
575.033234 212.072543 800.98409
575.033234 214.444361 800.98409
575.033234 216.816179 800.98409
575.033234 219.187997 800.98409
575.033234 221.559815 800.98409
575.033234 223.931633 800.98409
575.229558 189.743547 763.880687
575.229558 192.177577 763.880687
575.24698 191.532286 753.011383
575.24698 193.984461 753.011383
575.360467 179.868488 795.151175
575.360467 182.250675 795.151175
575.430907 188.976944 768.787817
575.430907 191.403197 768.787817
575.626339 187.832924 804.802372
575.626339 190.199558 804.802372
575.674351 180.869888 789.302352
575.674351 183.262444 789.302352
575.963584 179.367789 798.981389
575.963584 181.744791 798.981389
576.093183 183.355191 803.803011
576.093183 185.724417 803.803011
576.093183 192.832095 803.803011
576.093183 195.201321 803.803011
576.093183 197.570547 803.803011
576.093183 199.939773 803.803011
576.428759 227.21003 797.980039
576.428759 229.589625 797.980039
576.435055 182.121638 782.430304
576.435055 184.527154 782.430304
576.558141 191.609533 739.016725
576.560026 202.58527 802.803649
576.560026 204.957088 802.803649
576.560026 207.328906 802.803649
576.560026 209.700724 802.803649
576.560026 212.072543 802.803649
576.560026 214.444361 802.803649
576.560026 216.816179 802.803649
576.560026 219.187997 802.803649
576.560026 221.559815 802.803649
576.560026 223.931633 802.803649
576.598026 234.12086 787.291697
577.026869 179.117439 801.804287
577.026869 181.491849 801.804287
577.149794 187.832924 806.617954
577.149794 190.199558 806.617954
577.251559 185.125837 764.73469
577.251559 187.562459 764.73469
577.256369 188.630736 742.960289
577.256369 191.103648 742.960289
577.497766 187.879687 747.915146
577.497766 190.344822 747.915146
577.618306 183.355191 805.620581
577.618306 185.724417 805.620581
577.618306 192.832095 805.620581
577.618306 195.201321 805.620581
577.618306 197.570547 805.620581
577.618306 199.939773 805.620581
577.637572 183.623738 774.529066
577.637572 186.044807 774.529066
577.906403 184.625137 768.626551
577.906403 187.056575 768.626551
577.960556 227.21003 799.805564
577.960556 229.589625 799.805564
578.086818 202.58527 804.623208
578.086818 204.957088 804.623208
578.086818 207.328906 804.623208
578.086818 209.700724 804.623208
578.086818 212.072543 804.623208
578.086818 214.444361 804.623208
578.086818 216.816179 804.623208
578.086818 219.187997 804.623208
578.086818 221.559815 804.623208
578.086818 223.931633 804.623208
578.141504 234.12086 789.131143
578.404018 186.627937 756.773794
578.404018 189.080112 756.773794
578.55533 179.117439 803.625835
578.55533 181.491849 803.625835
578.673248 187.832924 808.433537
578.673248 190.199558 808.433537
579.084628 187.879687 749.806294
579.084628 190.344822 749.806294
579.143429 183.355191 807.438152
579.143429 185.724417 807.438152
579.143429 192.832095 807.438152
579.143429 195.201321 807.438152
579.492354 227.21003 801.631089
579.492354 229.589625 801.631089
579.613609 178.867089 806.442768
579.613609 181.238907 806.442768
579.613609 197.841634 806.442768
579.613609 200.213452 806.442768
579.613609 202.58527 806.442768
579.613609 204.957088 806.442768
579.613609 207.328906 806.442768
579.613609 209.700724 806.442768
579.613609 212.072543 806.442768
579.613609 214.444361 806.442768
579.613609 216.816179 806.442768
579.613609 219.187997 806.442768
579.684982 234.12086 790.970588
579.684982 236.5186 790.970588
580.08379 221.856824 805.447383
580.08379 224.231234 805.447383
580.294773 233.506106 794.808756
580.294773 235.898661 794.808756
580.668552 183.355191 809.255723
580.668552 185.724417 809.255723
580.668552 188.093643 809.255723
580.668552 190.462869 809.255723
580.668552 192.832095 809.255723
580.668552 195.201321 809.255723
580.67149 182.949415 751.697443
580.67149 185.414551 751.697443
580.89789 175.594446 798.63897
580.89789 177.981817 798.63897
581.024151 227.21003 803.456615
581.024151 229.589625 803.456615
581.080506 177.310606 787.966537
581.080506 179.716122 787.966537
581.099022 184.910741 739.761166
581.099022 187.396613 739.761166
581.140401 178.867089 808.262327
581.140401 181.238907 808.262327
581.140401 197.841634 808.262327
581.140401 200.213452 808.262327
581.140401 202.58527 808.262327
581.140401 204.957088 808.262327
581.140401 207.328906 808.262327
581.140401 209.700724 808.262327
581.140401 212.072543 808.262327
581.140401 214.444361 808.262327
581.140401 216.816179 808.262327
581.140401 219.187997 808.262327
581.22846 176.575109 792.810033
581.22846 178.972848 792.810033
581.305574 180.742925 766.45463
581.305574 183.184731 766.45463
581.386047 178.291268 782.107771
581.386047 180.707153 782.107771
581.496912 180.007428 771.349829
581.496912 182.441458 771.349829
581.61225 221.856824 807.268931
581.61225 224.231234 807.268931
581.678238 179.271931 776.233096
581.678238 181.698184 776.233096
581.795582 184.420409 743.702741
581.795582 186.901098 743.702741
581.834913 233.506106 796.644224
581.834913 235.898661 796.644224
581.964512 175.349281 801.465846
581.964512 177.73406 801.465846
582.017888 181.968753 759.524913
582.017888 184.42352 759.524913
582.258352 182.949415 753.588592
582.258352 185.414551 753.588592
582.555949 227.21003 805.28214
582.555949 229.589625 805.28214
582.667193 183.610725 810.081887
582.667193 185.982543 810.081887
582.667193 188.354361 810.081887
582.667193 190.726179 810.081887
582.667193 193.097998 810.081887
582.667193 195.469816 810.081887
582.667193 197.841634 810.081887
582.667193 200.213452 810.081887
582.667193 207.328906 810.081887
582.667193 209.700724 810.081887
582.667193 212.072543 810.081887
582.667193 214.444361 810.081887
583.14071 179.117439 809.090479
583.14071 181.491849 809.090479
583.14071 202.861541 809.090479
583.14071 205.235952 809.090479
583.14071 217.108003 809.090479
583.14071 219.482413 809.090479
583.375054 233.506106 798.479692
583.375054 235.898661 798.479692
583.499647 175.349281 803.295348
583.499647 177.73406 803.295348
583.614228 222.153832 808.099072
583.614228 224.530835 808.099072
584.054711 183.152588 738.616446
584.193984 183.610725 811.901446
584.193984 185.982543 811.901446
584.193984 188.354361 811.901446
584.193984 190.726179 811.901446
584.193984 193.097998 811.901446
584.193984 195.469816 811.901446
584.561264 227.512223 806.116258
584.561264 229.89441 806.116258
584.669171 179.117439 810.912027
584.669171 181.491849 810.912027
584.669171 198.112721 810.912027
584.669171 200.487131 810.912027
584.669171 202.861541 810.912027
584.669171 205.235952 810.912027
584.669171 207.610362 810.912027
584.669171 209.984772 810.912027
584.669171 212.359183 810.912027
584.669171 214.733593 810.912027
584.669171 217.108003 810.912027
584.669171 219.482413 810.912027
584.915195 233.506106 800.315161
584.915195 235.898661 800.315161
585.034782 175.349281 805.12485
585.034782 177.73406 805.12485
585.094095 175.37935 774.081061
585.094095 177.815971 774.081061
585.206433 180.418958 741.54474
585.206433 182.910015 741.54474
585.215709 178.739088 752.445861
585.215709 181.212 752.445861
585.372938 176.339275 768.190477
585.372938 178.786265 768.190477
585.444493 179.699014 746.495619
585.444493 182.182294 746.495619
585.619544 222.450841 808.93319
585.619544 224.830436 808.93319
585.732253 174.899387 777.953035
585.732253 177.330825 777.953035
586.09473 227.512223 807.943771
586.09473 229.89441 807.943771
586.197631 183.866259 812.733575
586.197631 186.240669 812.733575
586.197631 188.61508 812.733575
586.197631 190.98949 812.733575
586.197631 193.3639 812.733575
586.197631 195.738311 812.733575
586.197631 198.112721 812.733575
586.197631 200.487131 812.733575
586.197631 207.610362 812.733575
586.197631 209.984772 812.733575
586.197631 212.359183 812.733575
586.197631 214.733593 812.733575
586.197631 217.108003 812.733575
586.197631 219.482413 812.733575
586.363736 174.419424 781.817056
586.363736 176.845678 781.817056
586.455335 233.506106 802.150629
586.455335 235.898661 802.150629
586.569916 175.349281 806.954353
586.569916 177.73406 806.954353
586.674486 179.367789 811.746145
586.674486 181.744791 811.746145
586.674486 203.137813 811.746145
586.674486 205.514815 811.746145
586.802592 239.541463 796.341577
586.807577 178.739088 754.342975
586.807577 181.212 754.342975
587.018938 178.019144 759.262037
587.018938 180.48428 759.262037
587.151341 222.450841 810.758715
587.151341 224.830436 810.758715
587.402371 238.91634 800.167814
587.457057 174.179443 784.675748
587.457057 176.603104 784.675748
587.995476 233.506106 803.986097
587.995476 235.898661 803.986097
588.07686 173.69948 788.525848
588.07686 176.117957 788.525848
588.105051 175.349281 808.783855
588.105051 177.73406 808.783855
588.105051 227.814416 808.783855
588.105051 230.199195 808.783855
588.204615 184.121793 813.569682
588.204615 186.498796 813.569682
588.204615 188.875798 813.569682
588.204615 191.252801 813.569682
588.204615 193.629803 813.569682
588.204615 196.006806 813.569682
588.204615 198.383808 813.569682
588.204615 200.760811 813.569682
588.204615 207.891818 813.569682
588.204615 210.26882 813.569682
588.204615 212.645823 813.569682
588.204615 215.022825 813.569682
588.204615 217.399828 813.569682
588.204615 219.77683 813.569682
588.630634 178.877457 739.402647
588.683139 179.618139 812.58424
588.683139 181.997733 812.58424
588.683139 203.414084 812.58424
588.683139 205.793679 812.58424
588.683139 222.450841 812.58424
588.683139 224.830436 812.58424
588.870362 178.16529 744.355516
588.945849 238.91634 802.00726
589.067638 173.32367 760.147859
589.067638 175.791398 760.147859
589.161838 173.459499 791.374598
589.161838 175.875384 791.374598
589.535617 233.506106 805.821565
589.535617 235.898661 805.821565
590.017078 175.436843 747.277843
590.017078 177.927901 747.277843
590.11871 175.594446 809.627916
590.11871 177.981817 809.627916
590.11871 228.116609 809.627916
590.11871 230.50398 809.627916
590.214936 179.618139 814.409765
590.214936 181.997733 814.409765
590.214936 184.377328 814.409765
590.214936 186.756922 814.409765
590.214936 189.136517 814.409765
590.214936 191.516111 814.409765
590.214936 208.173274 814.409765
590.214936 210.552868 814.409765
590.214936 212.932463 814.409765
590.214936 215.312057 814.409765
590.214936 217.691652 814.409765
590.214936 220.071247 814.409765
590.24012 174.732452 752.210826
590.24012 177.215733 752.210826
590.243478 173.219518 794.219371
590.243478 175.63281 794.219371
590.489327 238.91634 803.846705
590.656168 173.32367 762.040996
590.656168 175.791398 762.040996
590.695128 194.161609 813.426313
590.695128 196.543796 813.426313
590.695128 198.925982 813.426313
590.695128 201.308169 813.426313
590.695128 203.690356 813.426313
590.695128 206.072543 813.426313
591.175321 223.044858 812.44286
591.175321 225.429637 812.44286
591.205153 171.210497 776.696764
591.205153 173.654895 776.696764
591.368124 170.506106 781.558157
591.368124 172.942728 781.558157
591.499013 172.149685 770.824078
591.499013 174.604452 770.824078
591.779524 173.088873 764.935483
591.779524 175.554009 764.935483
591.796968 173.219518 796.070748
591.796968 175.63281 796.070748
592.032805 234.12086 805.68615
592.032805 236.5186 805.68615
592.464782 170.271309 784.420827
592.464782 172.705338 784.420827
592.615898 176.084778 809.492501
592.615898 178.477333 809.492501
592.615898 228.720995 809.492501
592.615898 231.11355 809.492501
592.710455 180.118838 814.272362
592.710455 182.503617 814.272362
592.710455 184.888396 814.272362
592.710455 187.273175 814.272362
592.710455 189.657954 814.272362
592.710455 192.042733 814.272362
592.710455 208.736185 814.272362
592.710455 211.120964 814.272362
592.710455 213.505743 814.272362
592.710455 215.890522 814.272362
592.710455 218.275301 814.272362
592.710455 220.66008 814.272362
592.989852 239.541463 803.715267
593.001133 173.642401 746.16693
593.192316 194.693415 813.290898
593.192316 197.080786 813.290898
593.192316 199.468157 813.290898
593.192316 201.855528 813.290898
593.192316 223.341867 813.290898
593.192316 225.729238 813.290898
593.224175 172.945786 751.099912
593.350457 173.219518 797.922124
593.350457 175.63281 797.922124
593.558103 170.036512 787.27952
593.558103 172.467949 787.27952
593.83323 168.388215 765.82727
593.83323 170.855942 765.82727
594.156038 204.795442 811.327969
594.156038 207.187997 811.327969
594.364217 170.225117 754.014286
594.364217 172.713582 754.014286
594.536667 234.735615 805.55869
594.536667 237.138539 805.55869
594.570573 169.536278 758.927382
594.570573 172.016967 758.927382
594.903947 173.219518 799.773501
594.903947 175.63281 799.773501
595.016859 239.854024 804.575237
595.11976 176.575109 809.365041
595.11976 178.972848 809.365041
595.11976 229.325381 809.365041
595.11976 231.723121 809.365041
595.123273 170.036512 789.144817
595.123273 172.467949 789.144817
595.421761 168.388215 767.720407
595.421761 170.855942 767.720407
595.59975 167.699377 772.599698
595.59975 170.159328 772.599698
595.696179 180.869888 813.163437
595.696179 183.262444 813.163437
595.696179 185.654999 813.163437
595.696179 188.047554 813.163437
595.696179 190.44011 813.163437
595.696179 192.832665 813.163437
595.696179 209.580552 813.163437
595.696179 211.973108 813.163437
595.696179 214.365663 813.163437
595.696179 216.758218 813.163437
595.696179 219.150774 813.163437
595.696179 221.543329 813.163437
595.696179 223.935884 813.163437
595.696179 226.32844 813.163437
595.925692 166.3217 782.322484
595.925692 168.766099 782.322484
596.239576 167.240151 776.473661
596.239576 169.694918 776.473661
596.663238 195.757026 811.204486
596.663238 198.154766 811.204486
596.663238 200.552505 811.204486
596.663238 202.950245 811.204486
596.663238 205.347985 811.204486
596.663238 207.745724 811.204486
596.688443 170.036512 791.010114
596.688443 172.467949 791.010114
596.896446 168.190693 753.920631
596.937629 173.459499 800.641425
596.937629 175.875384 800.641425
597.024019 166.092087 785.187143
597.024019 168.533894 785.187143
597.529065 235.657747 804.457719
597.529065 238.068447 804.457719
597.630297 177.06544 809.245534
597.630297 179.468364 809.245534
598.03482 167.963672 756.833016
598.113827 230.23196 808.266059
598.113827 232.637476 808.266059
598.206716 181.370588 813.043931
598.206716 183.768328 813.043931
598.206716 186.166067 813.043931
598.206716 188.563807 813.043931
598.206716 190.961547 813.043931
598.206716 193.359286 813.043931
598.206716 210.143464 813.043931
598.206716 212.541203 813.043931
598.206716 214.938943 813.043931
598.206716 217.336683 813.043931
598.206716 219.734422 813.043931
598.206716 222.132162 813.043931
598.232832 167.282611 761.736169
598.253613 170.036512 792.875411
598.253613 172.467949 792.875411
598.595863 166.092087 787.060394
598.595863 168.533894 787.060394
598.598822 165.920487 771.506682
598.891014 166.828569 765.632007
598.974648 173.69948 801.513326
598.974648 176.117957 801.513326
598.974648 241.416832 801.513326
599.177112 196.288832 811.088957
599.177112 198.691756 811.088957
599.177112 225.123919 811.088957
599.177112 227.526843 811.088957
599.662311 177.310606 810.11147
599.662311 179.716122 810.11147
599.662311 201.365767 810.11147
599.662311 203.771283 810.11147
599.662311 206.176799 810.11147
599.662311 208.582315 810.11147
599.662311 230.23196 810.11147
599.662311 232.637476 810.11147
599.818783 170.036512 794.740708
599.818783 172.467949 794.740708
600.047945 236.272501 804.348156
600.047945 238.688386 804.348156
600.167708 166.092087 788.933645
600.167708 168.533894 788.933645
600.187353 163.452759 773.399819
600.187353 165.920487 773.399819
600.723928 181.871288 812.932379
600.723928 184.274212 812.932379
600.723928 186.677136 812.932379
600.723928 189.08006 812.932379
601.015004 173.939462 802.389205
601.015004 176.360531 802.389205
601.210794 177.310606 811.956881
601.210794 179.716122 811.956881
601.210794 191.743702 811.956881
601.210794 194.149218 811.956881
601.210794 210.987831 811.956881
601.210794 213.393347 811.956881
601.210794 215.798863 811.956881
601.210794 218.204379 811.956881
601.210794 220.609895 811.956881
601.210794 223.015412 811.956881
601.210794 225.420928 811.956881
601.210794 227.826444 811.956881
601.498534 242.041955 801.409729
601.775884 163.452759 775.292956
601.775884 165.920487 775.292956
601.865814 170.271309 795.624541
601.865814 172.705338 795.624541
602.088302 236.579878 805.224034
602.088302 238.998355 805.224034
602.184528 197.08654 810.005884
602.184528 199.497241 810.005884
602.219745 166.3217 789.823444
602.219745 168.766099 789.823444
602.671395 202.179028 809.030385
602.671395 204.592321 809.030385
602.671395 207.005613 809.030385
602.671395 209.418906 809.030385
602.671395 231.138539 809.030385
602.671395 233.551831 809.030385
602.759278 182.121638 813.802292
602.759278 184.527154 813.802292
602.759278 186.93267 813.802292
602.759278 189.338186 813.802292
603.058698 174.179443 803.26906
603.058698 176.603104 803.26906
603.364414 163.452759 777.186093
603.364414 165.920487 777.186093
603.432652 170.271309 797.491826
603.432652 172.705338 797.491826
603.543896 242.354517 802.291573
604.131995 236.887256 806.10389
604.131995 239.308325 806.10389
604.224884 178.046103 810.881762
604.224884 180.459395 810.881762
604.224884 192.525858 810.881762
604.224884 194.93915 810.881762
604.224884 216.658783 810.881762
604.224884 219.072076 810.881762
604.224884 221.485369 810.881762
604.224884 223.898661 810.881762
604.224884 226.311954 810.881762
604.224884 228.725246 810.881762
604.71342 212.113654 809.908252
604.71342 214.529539 809.908252
605.105729 174.419424 804.152893
605.105729 176.845678 804.152893
605.201955 197.884249 808.934742
605.201955 200.302726 808.934742
605.201955 202.721202 808.934742
605.201955 205.139679 808.934742
605.201955 207.558156 808.934742
605.201955 209.976633 808.934742
605.201955 231.742925 808.934742
605.201955 234.161402 808.934742
605.238841 167.010538 788.754291
605.238841 169.462713 788.754291
605.484689 170.506106 798.381625
605.484689 172.942728 798.381625
605.778374 182.872688 812.733139
605.778374 185.28598 812.733139
605.778374 187.699273 812.733139
605.778374 190.112565 812.733139
605.909992 163.901616 777.108348
605.909992 166.374528 777.108348
606.541476 163.452759 780.972368
606.541476 165.920487 780.972368
606.667562 174.419424 806.014213
606.667562 176.845678 806.014213
606.667562 237.50201 806.014213
606.667562 239.928263 806.014213
606.758782 178.536434 810.790096
606.758782 180.954911 810.790096
606.758782 193.047295 810.790096
606.758782 195.465772 810.790096
606.758782 217.232064 810.790096
606.758782 219.65054 810.790096
606.758782 222.069017 810.790096
606.758782 224.487494 810.790096
606.758782 226.905971 810.790096
606.758782 229.324448 810.790096
607.248986 198.150152 809.818575
607.248986 200.571221 809.818575
607.248986 212.676566 809.818575
607.248986 215.097635 809.818575
607.540063 170.740903 799.2754
607.540063 173.180117 799.2754
608.130006 163.452759 782.865505
608.130006 165.920487 782.865505
608.229395 203.534464 807.875532
608.229395 205.960717 807.875532
608.229395 208.386971 807.875532
608.229395 210.813224 807.875532
608.229395 232.649504 807.875532
608.229395 235.075757 807.875532
608.267948 167.699377 787.697069
608.267948 170.159328 787.697069
608.315609 183.373388 812.64545
608.315609 185.791864 812.64545
608.315609 188.210341 812.64545
608.315609 190.628818 812.64545
608.315609 193.047295 812.64545
608.315609 195.465772 812.64545
608.719599 174.659406 806.904011
608.719599 177.088251 806.904011
608.719599 237.809387 806.904011
608.719599 240.238233 806.904011
608.807482 178.7816 811.675918
608.807482 181.202669 811.675918
609.110239 170.740903 801.146663
609.110239 173.180117 801.146663
609.791227 198.681957 809.736852
609.791227 201.108211 809.736852
609.791227 203.534464 809.736852
609.791227 205.960717 809.736852
609.791227 213.239477 809.736852
609.791227 215.66573 809.736852
609.791227 218.091984 809.736852
609.791227 220.518237 809.736852
609.791227 222.94449 809.736852
609.791227 225.370744 809.736852
609.791227 227.796997 809.736852
609.791227 230.22325 809.736852
609.791227 232.649504 809.736852
609.791227 235.075757 809.736852
610.2831 208.663242 808.767319
610.2831 211.092087 808.767319
610.365977 183.623738 813.53326
610.365977 186.044807 813.53326
610.365977 188.465876 813.53326
610.365977 190.886945 813.53326
610.685596 163.901616 782.799691
610.685596 166.374528 782.799691
610.774973 174.899387 807.797787
610.774973 177.330825 807.797787
610.774973 238.116765 807.797787
610.82187 168.158602 787.629266
610.82187 170.623738 787.629266
610.859519 193.568732 812.565716
610.859519 195.992393 812.565716
611.170619 170.9757 802.046404
611.170619 173.417506 802.046404
611.35306 179.271931 811.598172
611.35306 181.698184 811.598172
611.35306 198.681957 811.598172
611.35306 201.108211 811.598172
611.846601 203.805551 810.630628
611.846601 206.234396 810.630628
611.846601 218.378624 810.630628
611.846601 220.807469 810.630628
611.846601 223.236315 810.630628
611.846601 225.66516 810.630628
611.846601 228.094006 810.630628
611.846601 230.522851 810.630628
612.340143 174.899387 809.663083
612.340143 177.330825 809.663083
612.340143 208.939513 809.663083
612.340143 211.370951 809.663083
612.340143 213.802389 809.663083
612.340143 216.233826 809.663083
612.340143 233.253889 809.663083
612.340143 235.685327 809.663083
612.340143 238.116765 809.663083
612.742464 170.9757 803.919656
612.742464 173.417506 803.919656
612.895599 168.388215 788.544916
612.895599 170.855942 788.544916
612.914893 179.271931 813.459492
612.914893 181.698184 813.459492
612.914893 184.124437 813.459492
612.914893 186.550691 813.459492
612.914893 188.976944 813.459492
612.914893 191.403197 813.459492
612.914893 193.829451 813.459492
612.914893 196.255704 813.459492
612.914893 198.681957 813.459492
612.914893 201.108211 813.459492
613.410103 203.805551 812.493936
613.410103 206.234396 812.493936
613.733059 164.574901 781.764344
613.733059 167.05559 781.764344
613.905313 208.939513 811.52838
613.905313 211.370951 811.52838
614.314308 170.9757 805.792907
614.314308 173.417506 805.792907
614.400523 175.139368 810.562825
614.400523 177.573398 810.562825
614.400523 214.083844 810.562825
614.400523 216.517874 810.562825
614.400523 218.951904 810.562825
614.400523 221.385934 810.562825
614.400523 223.819963 810.562825
614.400523 226.253993 810.562825
614.400523 228.688023 810.562825
614.400523 231.122053 810.562825
614.400523 233.556082 810.562825
614.400523 235.990112 810.562825
614.476725 188.976944 815.320811
614.476725 191.403197 815.320811
614.476725 193.829451 815.320811
614.476725 196.255704 815.320811
614.484129 168.388215 790.438054
614.484129 170.855942 790.438054
614.973604 184.374787 814.357244
614.973604 186.803633 814.357244
614.973604 198.94786 814.357244
614.973604 201.376706 814.357244
615.470483 179.762262 813.393677
615.470483 182.1937 813.393677
615.470483 204.076638 813.393677
615.470483 206.508076 813.393677
615.8168 164.79933 782.691925
615.8168 167.282611 782.691925
615.967361 175.139368 812.43011
615.967361 177.573398 812.43011
615.967361 209.215785 812.43011
615.967361 211.649815 812.43011
616.46424 214.3653 811.466543
616.46424 216.801922 811.466543
616.46424 219.238544 811.466543
616.46424 221.675166 811.466543
616.46424 224.111788 811.466543
616.46424 226.54841 811.466543
616.46424 228.985032 811.466543
616.46424 231.421653 811.466543
616.46424 233.858275 811.466543
616.46424 236.294897 811.466543
616.537105 184.374787 816.220553
616.537105 186.803633 816.220553
616.537105 189.232478 816.220553
616.537105 191.661324 816.220553
616.537105 194.090169 816.220553
616.537105 196.519015 816.220553
616.537105 198.94786 816.220553
616.537105 201.376706 816.220553
616.876572 171.445294 805.735047
616.876572 173.892284 805.735047
617.035653 204.076638 815.258974
617.035653 206.508076 815.258974
617.053068 168.84744 790.388148
617.053068 171.320352 790.388148
617.5342 180.007428 814.297396
617.5342 182.441458 814.297396
617.5342 209.215785 814.297396
617.5342 211.649815 814.297396
617.903878 165.023758 783.623484
617.903878 167.509631 783.623484
618.451754 171.445294 807.612275
618.451754 173.892284 807.612275
618.531294 175.619331 812.374239
618.531294 178.058545 812.374239
618.531294 214.646756 812.374239
618.531294 217.08597 812.374239
618.531294 234.160468 812.374239
618.600823 189.488013 817.124271
618.600823 191.91945 817.124271
618.600823 194.350888 817.124271
618.600823 196.782325 817.124271
618.600823 199.213763 817.124271
618.600823 201.645201 817.124271
618.644936 168.84744 792.285263
618.644936 171.320352 792.285263
619.029841 219.811824 811.412661
619.029841 222.25363 811.412661
619.029841 224.695436 811.412661
619.029841 227.137243 811.412661
619.029841 229.579049 811.412661
619.029841 232.020855 811.412661
619.101038 184.875487 816.164681
619.101038 187.309517 816.164681
619.101038 204.347725 816.164681
619.101038 206.781755 816.164681
619.101038 209.215785 816.164681
619.101038 211.649815 816.164681
619.504089 167.509631 785.530542
619.601254 180.252593 815.205092
619.601254 182.689215 815.205092
620.236804 168.84744 794.182377
620.236804 171.320352 794.182377
620.525483 171.680091 808.527926
620.525483 174.129674 808.527926
620.601686 214.928212 813.285912
620.601686 217.370018 813.285912
620.601686 229.579049 813.285912
620.601686 232.020855 813.285912
620.667877 189.743547 818.031967
620.667877 192.177577 818.031967
620.667877 194.611606 818.031967
620.667877 197.045636 818.031967
620.667877 199.479666 818.031967
620.667877 201.913696 818.031967
620.667877 204.347725 818.031967
620.667877 206.781755 818.031967
621.101902 176.099294 812.326322
621.101902 178.543692 812.326322
621.1043 167.509631 787.437599
621.169761 185.125837 817.074366
621.169761 187.562459 817.074366
621.169761 209.492056 817.074366
621.169761 211.928678 817.074366
621.602118 220.385104 811.366732
621.602118 222.832095 811.366732
621.602118 225.279085 811.366732
621.602118 227.726076 811.366732
621.828672 168.84744 796.079491
621.828672 171.320352 796.079491
622.21097 167.282611 790.3122
622.234716 199.479666 819.899253
622.234716 201.913696 819.899253
622.675415 180.98809 814.201562
622.675415 183.432489 814.201562
622.675415 215.209667 814.201562
622.675415 217.654066 814.201562
622.738269 189.999081 818.94364
622.738269 192.435703 818.94364
622.738269 194.872325 818.94364
622.738269 197.308947 818.94364
622.738269 204.618812 818.94364
622.738269 207.055434 818.94364
623.241822 209.768328 817.988027
623.241822 212.207542 817.988027
623.42054 171.320352 797.976606
623.679184 176.579256 812.28636
623.679184 179.028839 812.28636
623.679184 230.470075 812.28636
623.745375 185.626537 817.032415
623.745375 188.068343 817.032415
624.181068 220.958384 811.328758
624.181068 223.410559 811.328758
624.181068 225.862734 811.328758
624.181068 228.314909 811.328758
624.306776 194.872325 820.812914
624.306776 197.308947 820.812914
624.306776 199.745569 820.812914
624.306776 202.182191 820.812914
624.306776 204.618812 820.812914
624.306776 207.055434 820.812914
624.752481 181.233256 815.121189
624.752481 183.680246 815.121189
624.752481 215.491123 815.121189
624.752481 217.938114 815.121189
624.811998 209.768328 819.85929
624.811998 212.207542 819.85929
625.317219 185.626537 818.905666
625.317219 188.068343 818.905666
625.317219 190.51015 818.905666
625.317219 192.951956 818.905666
626.26314 221.245024 812.254352
626.26314 223.699791 812.254352
626.327663 215.491123 816.998418
626.327663 217.938114 816.998418
626.766693 226.446383 811.298739
626.766693 228.903742 811.298739
626.889064 190.51015 820.778917
626.889064 192.951956 820.778917
626.889064 195.393762 820.778917
626.889064 197.835568 820.778917
626.889064 200.277374 820.778917
626.889064 202.719181 820.778917
627.270247 177.539182 810.343126
627.270247 179.999133 810.343126
627.395954 205.432074 819.827282
627.395954 207.876472 819.827282
627.843328 181.968753 814.137546
627.843328 184.42352 814.137546
627.902845 210.597142 818.875646
627.902845 213.044133 818.875646
628.409735 186.377587 817.924011
628.409735 188.82717 817.924011
628.853771 179.999133 812.230298
628.853771 221.818304 812.230298
628.853771 224.278256 812.230298
630.437296 184.919035 814.117469
631.451077 217.461313 812.214198
631.451077 219.926449 812.214198
631.451077 222.391585 812.214198
633.546498 198.000947 813.1557
633.546498 200.468675 813.1557
633.546498 202.936403 813.1557
633.546498 205.404131 813.1557
633.546498 207.871858 813.1557
633.546498 210.339586 813.1557
634.563616 193.57656 811.256406
634.563616 196.049472 811.256406
634.563616 213.359857 811.256406
634.563616 215.832769 811.256406
634.563616 218.305681 811.256406
636.155484 208.414033 813.153521
637.175939 204.000014 811.258204
637.175939 206.478111 811.258204
564.894301 209.581082 776.453028
564.894301 211.973637 776.453028
564.894301 214.366193 776.453028
565.078964 208.736715 781.340273
565.078964 211.121494 781.340273
565.078964 213.506272 781.340273
565.078964 215.891051 781.340273
565.53079 218.567655 780.323014
565.53079 220.955026 780.323014
565.596603 210.988361 769.51138
565.596603 213.393877 769.51138
565.70711 208.173803 785.200316
565.70711 210.553398 785.200316
565.70711 212.932992 785.200316
565.70711 215.312587 785.200316
565.70711 217.692182 785.200316
565.70711 220.071776 785.200316
566.328582 207.610892 789.052404
566.328582 209.985302 789.052404
566.328582 212.359712 789.052404
566.328582 214.734123 789.052404
566.434442 204.795971 778.288496
566.434442 207.188527 778.288496
566.614099 203.967157 783.169775
566.614099 206.351936 783.169775
566.694929 205.901057 772.376038
566.694929 208.303981 772.376038
566.729038 207.834957 761.52662
566.729038 210.256026 761.52662
566.783745 203.138343 788.039123
566.783745 205.515345 788.039123
566.783745 217.400357 788.039123
566.783745 219.77736 788.039123
566.951148 204.077168 755.568425
566.951148 206.508605 755.568425
567.067593 223.342397 782.154505
567.390557 207.282414 765.426435
567.390557 209.698299 765.426435
567.400211 202.5858 791.885245
567.400211 204.957618 791.885245
567.400211 207.329436 791.885245
567.400211 209.701254 791.885245
567.400211 212.073072 791.885245
567.400211 214.44489 791.885245
567.400211 216.816708 791.885245
567.400211 219.188527 791.885245
567.622678 203.534994 759.480171
567.622678 205.961247 759.480171
567.694071 198.926512 786.012559
567.694071 201.308699 786.012559
567.857042 198.113251 790.873952
567.857042 200.487661 790.873952
567.974582 200.010861 780.123964
567.974582 202.403416 780.123964
568.149234 223.045388 784.999277
568.149234 225.430167 784.999277
568.286601 200.012001 752.492785
568.286601 202.451215 752.492785
568.313874 222.154362 789.862659
568.313874 224.531364 789.862659
568.69357 201.366296 773.202202
568.69357 203.771812 773.202202
568.736022 203.263906 762.362727
568.736022 205.687568 762.362727
568.770705 193.896236 788.851366
568.770705 196.27583 788.851366
568.927002 197.842163 793.704805
568.927002 200.213982 793.704805
568.927002 202.5858 793.704805
568.927002 204.957618 793.704805
568.927002 207.329436 793.704805
568.927002 209.701254 793.704805
568.927002 212.073072 793.704805
568.927002 214.44489 793.704805
568.927002 216.816708 793.704805
568.927002 219.188527 793.704805
568.945715 202.450645 767.279801
568.945715 204.86653 767.279801
568.963137 199.480195 756.410497
568.963137 201.914225 756.410497
569.385502 193.36443 792.6955
569.385502 195.73884 792.6955
569.385502 221.857353 792.6955
569.385502 224.231764 792.6955
569.514723 195.22575 781.959432
569.514723 197.618305 781.959432
570.242054 196.555264 775.047613
570.242054 198.96078 775.047613
570.302503 189.137046 790.676891
570.302503 191.516641 790.676891
570.453794 193.098527 795.524364
570.453794 195.470345 795.524364
570.453794 197.842163 795.524364
570.453794 200.213982 795.524364
570.453794 202.5858 795.524364
570.453794 204.957618 795.524364
570.453794 207.329436 795.524364
570.453794 209.701254 795.524364
570.453794 212.073072 795.524364
570.453794 214.44489 795.524364
570.453794 216.816708 795.524364
570.453794 219.188527 795.524364
570.529976 199.480195 758.277783
570.529976 201.914225 758.277783
570.746343 198.682487 763.202811
570.746343 201.10874 763.202811
570.913963 188.615609 794.517048
570.913963 190.99002 794.517048
570.913963 221.857353 794.517048
570.913963 224.231764 794.517048
570.957509 196.697884 746.341506
570.957509 199.152651 746.341506
571.054863 190.440639 783.7949
571.054863 192.833195 783.7949
571.219503 227.814946 788.658282
571.404525 198.150681 767.098648
571.404525 200.57175 767.098648
571.644056 196.176447 750.271149
571.644056 198.62603 750.271149
571.980585 188.354891 797.343924
571.980585 190.726709 797.343924
571.980585 193.098527 797.343924
571.980585 195.470345 797.343924
571.980585 197.842163 797.343924
571.980585 200.213982 797.343924
571.980585 202.5858 797.343924
571.980585 204.957618 797.343924
571.980585 207.329436 797.343924
571.980585 209.701254 797.343924
571.980585 212.073072 797.343924
571.980585 214.44489 797.343924
571.980585 216.816708 797.343924
571.980585 219.188527 797.343924
572.294469 184.633392 791.4951
572.294469 187.015578 791.4951
572.442423 221.857353 796.338596
572.442423 224.231764 796.338596
572.546972 194.872854 759.125821
572.546972 197.309476 759.125821
572.738113 195.275623 742.240653
572.754638 227.814946 790.487784
572.754638 230.199725 790.487784
572.772418 195.915729 753.171602
572.772418 198.362719 753.171602
572.90426 184.122323 795.333269
572.90426 186.499326 795.333269
572.984516 192.043885 747.201475
572.984516 194.501244 747.201475
573.043871 188.094172 800.166822
573.043871 190.463398 800.166822
573.043871 192.832624 800.166822
573.043871 195.20185 800.166822
573.043871 197.571076 800.166822
573.043871 199.940302 800.166822
573.156027 192.526388 773.853179
573.156027 194.93968 773.853179
573.211827 194.351417 763.029613
573.211827 196.782855 763.029613
573.507377 183.611255 799.163483
573.507377 185.983073 799.163483
573.507377 202.5858 799.163483
573.507377 204.957618 799.163483
573.507377 207.329436 799.163483
573.507377 209.701254 799.163483
573.507377 212.073072 799.163483
573.507377 214.44489 799.163483
573.507377 216.816708 799.163483
573.507377 219.188527 799.163483
573.507377 221.560345 799.163483
573.507377 223.932163 799.163483
573.512004 186.166597 783.611759
573.512004 188.564337 783.611759
573.827935 227.512753 793.322614
573.827935 229.89494 793.322614
573.870009 193.82998 766.92545
573.870009 196.256234 766.92545
574.103819 187.833454 802.985743
574.103819 190.200088 802.985743
574.566372 192.043885 749.086658
574.566372 194.501244 749.086658
574.568994 183.35572 801.984393
574.568994 185.724946 801.984393
574.568994 192.832624 801.984393
574.568994 195.20185 801.984393
574.568994 197.571076 801.984393
574.568994 199.940302 801.984393
574.709516 187.699802 775.704555
574.709516 190.113095 775.704555
574.897895 227.21056 796.153467
574.897895 229.590154 796.153467
575.01913 190.510679 758.960577
575.01913 192.952485 758.960577
575.034169 202.5858 800.983042
575.034169 204.957618 800.983042
575.034169 207.329436 800.983042
575.034169 209.701254 800.983042
575.034169 212.073072 800.983042
575.034169 214.44489 800.983042
575.034169 216.816708 800.983042
575.034169 219.188527 800.983042
575.034169 221.560345 800.983042
575.034169 223.932163 800.983042
575.230492 189.744076 763.879639
575.230492 192.178106 763.879639
575.247914 191.532816 753.010336
575.247914 193.984991 753.010336
575.361401 179.869018 795.150128
575.361401 182.251205 795.150128
575.431841 188.977474 768.78677
575.431841 191.403727 768.78677
575.627274 187.833454 804.801325
575.627274 190.200088 804.801325
575.675285 180.870418 789.301305
575.675285 183.262973 789.301305
575.964518 179.368318 798.980342
575.964518 181.745321 798.980342
576.094117 183.35572 803.801963
576.094117 185.724946 803.801963
576.094117 192.832624 803.801963
576.094117 195.20185 803.801963
576.094117 197.571076 803.801963
576.094117 199.940302 803.801963
576.429693 227.21056 797.978992
576.429693 229.590154 797.978992
576.435989 182.122168 782.429257
576.435989 184.527684 782.429257
576.559075 191.610062 739.015678
576.56096 202.5858 802.802602
576.56096 204.957618 802.802602
576.56096 207.329436 802.802602
576.56096 209.701254 802.802602
576.56096 212.073072 802.802602
576.56096 214.44489 802.802602
576.56096 216.816708 802.802602
576.56096 219.188527 802.802602
576.56096 221.560345 802.802602
576.56096 223.932163 802.802602
576.59896 234.12139 787.29065
577.027804 179.117968 801.80324
577.027804 181.492379 801.80324
577.150728 187.833454 806.616907
577.150728 190.200088 806.616907
577.252493 185.126367 764.733643
577.252493 187.562989 764.733643
577.257303 188.631266 742.959242
577.257303 191.104178 742.959242
577.4987 187.880216 747.914098
577.4987 190.345352 747.914098
577.61924 183.35572 805.619534
577.61924 185.724946 805.619534
577.61924 192.832624 805.619534
577.61924 195.20185 805.619534
577.61924 197.571076 805.619534
577.61924 199.940302 805.619534
577.638506 183.624267 774.528019
577.638506 186.045336 774.528019
577.907337 184.625667 768.625503
577.907337 187.057105 768.625503
577.96149 227.21056 799.804517
577.96149 229.590154 799.804517
578.087752 202.5858 804.622161
578.087752 204.957618 804.622161
578.087752 207.329436 804.622161
578.087752 209.701254 804.622161
578.087752 212.073072 804.622161
578.087752 214.44489 804.622161
578.087752 216.816708 804.622161
578.087752 219.188527 804.622161
578.087752 221.560345 804.622161
578.087752 223.932163 804.622161
578.142438 234.12139 789.130095
578.404952 186.628466 756.772747
578.404952 189.080641 756.772747
578.556264 179.117968 803.624788
578.556264 181.492379 803.624788
578.674182 187.833454 808.432489
578.674182 190.200088 808.432489
579.085562 187.880216 749.805247
579.085562 190.345352 749.805247
579.144363 183.35572 807.437105
579.144363 185.724946 807.437105
579.144363 192.832624 807.437105
579.144363 195.20185 807.437105
579.493288 227.21056 801.630042
579.493288 229.590154 801.630042
579.614543 178.867618 806.44172
579.614543 181.239436 806.44172
579.614543 197.842163 806.44172
579.614543 200.213982 806.44172
579.614543 202.5858 806.44172
579.614543 204.957618 806.44172
579.614543 207.329436 806.44172
579.614543 209.701254 806.44172
579.614543 212.073072 806.44172
579.614543 214.44489 806.44172
579.614543 216.816708 806.44172
579.614543 219.188527 806.44172
579.685916 234.12139 790.969541
579.685916 236.51913 790.969541
580.084724 221.857353 805.446336
580.084724 224.231764 805.446336
580.295707 233.506635 794.807709
580.295707 235.899191 794.807709
580.669486 183.35572 809.254676
580.669486 185.724946 809.254676
580.669486 188.094172 809.254676
580.669486 190.463398 809.254676
580.669486 192.832624 809.254676
580.669486 195.20185 809.254676
580.672424 182.949945 751.696396
580.672424 185.415081 751.696396
580.898824 175.594976 798.637923
580.898824 177.982347 798.637923
581.025085 227.21056 803.455567
581.025085 229.590154 803.455567
581.08144 177.311135 787.96549
581.08144 179.716651 787.96549
581.099957 184.91127 739.760119
581.099957 187.397143 739.760119
581.141335 178.867618 808.26128
581.141335 181.239436 808.26128
581.141335 197.842163 808.26128
581.141335 200.213982 808.26128
581.141335 202.5858 808.26128
581.141335 204.957618 808.26128
581.141335 207.329436 808.26128
581.141335 209.701254 808.26128
581.141335 212.073072 808.26128
581.141335 214.44489 808.26128
581.141335 216.816708 808.26128
581.141335 219.188527 808.26128
581.229394 176.575638 792.808986
581.229394 178.973378 792.808986
581.306508 180.743454 766.453582
581.306508 183.185261 766.453582
581.386981 178.291798 782.106724
581.386981 180.707683 782.106724
581.497846 180.007957 771.348781
581.497846 182.441987 771.348781
581.613184 221.857353 807.267884
581.613184 224.231764 807.267884
581.679172 179.27246 776.232049
581.679172 181.698714 776.232049
581.796516 184.420939 743.701694
581.796516 186.901627 743.701694
581.835848 233.506635 796.643177
581.835848 235.899191 796.643177
581.965446 175.34981 801.464798
581.965446 177.734589 801.464798
582.018822 181.969282 759.523865
582.018822 184.424049 759.523865
582.259286 182.949945 753.587544
582.259286 185.415081 753.587544
582.556883 227.21056 805.281092
582.556883 229.590154 805.281092
582.668127 183.611255 810.080839
582.668127 185.983073 810.080839
582.668127 188.354891 810.080839
582.668127 190.726709 810.080839
582.668127 193.098527 810.080839
582.668127 195.470345 810.080839
582.668127 197.842163 810.080839
582.668127 200.213982 810.080839
582.668127 207.329436 810.080839
582.668127 209.701254 810.080839
582.668127 212.073072 810.080839
582.668127 214.44489 810.080839
583.141645 179.117968 809.089432
583.141645 181.492379 809.089432
583.141645 202.862071 809.089432
583.141645 205.236481 809.089432
583.141645 217.108533 809.089432
583.141645 219.482943 809.089432
583.375988 233.506635 798.478645
583.375988 235.899191 798.478645
583.500581 175.34981 803.294301
583.500581 177.734589 803.294301
583.615162 222.154362 808.098025
583.615162 224.531364 808.098025
584.055645 183.153118 738.615399
584.194918 183.611255 811.900399
584.194918 185.983073 811.900399
584.194918 188.354891 811.900399
584.194918 190.726709 811.900399
584.194918 193.098527 811.900399
584.194918 195.470345 811.900399
584.562198 227.512753 806.11521
584.562198 229.89494 806.11521
584.670105 179.117968 810.91098
584.670105 181.492379 810.91098
584.670105 198.113251 810.91098
584.670105 200.487661 810.91098
584.670105 202.862071 810.91098
584.670105 205.236481 810.91098
584.670105 207.610892 810.91098
584.670105 209.985302 810.91098
584.670105 212.359712 810.91098
584.670105 214.734123 810.91098
584.670105 217.108533 810.91098
584.670105 219.482943 810.91098
584.916129 233.506635 800.314113
584.916129 235.899191 800.314113
585.035716 175.34981 805.123803
585.035716 177.734589 805.123803
585.095029 175.379879 774.080014
585.095029 177.816501 774.080014
585.207367 180.419487 741.543693
585.207367 182.910544 741.543693
585.216643 178.739618 752.444813
585.216643 181.21253 752.444813
585.373872 176.339805 768.18943
585.373872 178.786795 768.18943
585.445427 179.699543 746.494572
585.445427 182.182824 746.494572
585.620478 222.451371 808.932143
585.620478 224.830965 808.932143
585.733187 174.899917 777.951988
585.733187 177.331354 777.951988
586.095664 227.512753 807.942724
586.095664 229.89494 807.942724
586.198565 183.866789 812.732528
586.198565 186.241199 812.732528
586.198565 188.615609 812.732528
586.198565 190.99002 812.732528
586.198565 193.36443 812.732528
586.198565 195.73884 812.732528
586.198565 198.113251 812.732528
586.198565 200.487661 812.732528
586.198565 207.610892 812.732528
586.198565 209.985302 812.732528
586.198565 212.359712 812.732528
586.198565 214.734123 812.732528
586.198565 217.108533 812.732528
586.198565 219.482943 812.732528
586.364671 174.419954 781.816008
586.364671 176.846207 781.816008
586.456269 233.506635 802.149581
586.456269 235.899191 802.149581
586.570851 175.34981 806.953305
586.570851 177.734589 806.953305
586.67542 179.368318 811.745098
586.67542 181.745321 811.745098
586.67542 203.138343 811.745098
586.67542 205.515345 811.745098
586.803526 239.541992 796.34053
586.808511 178.739618 754.341928
586.808511 181.21253 754.341928
587.019872 178.019674 759.26099
587.019872 180.484809 759.26099
587.152275 222.451371 810.757668
587.152275 224.830965 810.757668
587.403305 238.916869 800.166767
587.457991 174.179973 784.674701
587.457991 176.603634 784.674701
587.99641 233.506635 803.985049
587.99641 235.899191 803.985049
588.077794 173.70001 788.524801
588.077794 176.118487 788.524801
588.105985 175.34981 808.782808
588.105985 177.734589 808.782808
588.105985 227.814946 808.782808
588.105985 230.199725 808.782808
588.205549 184.122323 813.568634
588.205549 186.499326 813.568634
588.205549 188.876328 813.568634
588.205549 191.25333 813.568634
588.205549 193.630333 813.568634
588.205549 196.007335 813.568634
588.205549 198.384338 813.568634
588.205549 200.76134 813.568634
588.205549 207.892347 813.568634
588.205549 210.26935 813.568634
588.205549 212.646352 813.568634
588.205549 215.023355 813.568634
588.205549 217.400357 813.568634
588.205549 219.77736 813.568634
588.631568 178.877987 739.4016
588.684073 179.618668 812.583193
588.684073 181.998263 812.583193
588.684073 203.414614 812.583193
588.684073 205.794209 812.583193
588.684073 222.451371 812.583193
588.684073 224.830965 812.583193
588.871296 178.165819 744.354468
588.946783 238.916869 802.006212
589.068572 173.3242 760.146811
589.068572 175.791928 760.146811
589.162772 173.460029 791.373551
589.162772 175.875913 791.373551
589.536551 233.506635 805.820518
589.536551 235.899191 805.820518
590.018012 175.437373 747.276796
590.018012 177.92843 747.276796
590.119644 175.594976 809.626869
590.119644 177.982347 809.626869
590.119644 228.117139 809.626869
590.119644 230.50451 809.626869
590.21587 179.618668 814.408718
590.21587 181.998263 814.408718
590.21587 184.377857 814.408718
590.21587 186.757452 814.408718
590.21587 189.137046 814.408718
590.21587 191.516641 814.408718
590.21587 208.173803 814.408718
590.21587 210.553398 814.408718
590.21587 212.932992 814.408718
590.21587 215.312587 814.408718
590.21587 217.692182 814.408718
590.21587 220.071776 814.408718
590.241054 174.732982 752.209778
590.241054 177.216263 752.209778
590.244412 173.220047 794.218324
590.244412 175.63334 794.218324
590.490261 238.916869 803.845657
590.657103 173.3242 762.039948
590.657103 175.791928 762.039948
590.696062 194.162139 813.425265
590.696062 196.544325 813.425265
590.696062 198.926512 813.425265
590.696062 201.308699 813.425265
590.696062 203.690885 813.425265
590.696062 206.073072 813.425265
591.176255 223.045388 812.441812
591.176255 225.430167 812.441812
591.206087 171.211026 776.695717
591.206087 173.655425 776.695717
591.369058 170.506635 781.55711
591.369058 172.943257 781.55711
591.499947 172.150215 770.823031
591.499947 174.604982 770.823031
591.780459 173.089403 764.934436
591.780459 175.554538 764.934436
