ply
format ascii 1.0
element vertex 1064
property float x
property float y
property float z
property uchar red
property uchar green
property uchar blue
end_header
665.351382 -100.188553 781.115205 192 155 119
664.317578 -102.667064 782.994613 192 157 121
664.317578 -105.246254 782.994613 191 155 119
664.317578 -107.825445 782.994613 193 155 123
664.317578 -110.404635 782.994613 192 154 121
664.317578 -112.983825 782.994613 189 148 119
664.317578 -115.563015 782.994613 189 148 119
657.504961 -89.3714034 790.432892 196 156 120
655.959261 -91.7969827 793.257969 165 136 93
655.959261 -94.342475 793.257969 145 116 74
655.959261 -96.8879672 793.257969 131 109 62
655.959261 -99.4334595 793.257969 126 104 56
657.504961 -102.137747 790.432892 124 104 58
657.504961 -104.691016 790.432892 131 111 65
658.020195 -107.3024 789.491199 149 121 82
658.020195 -109.858261 789.491199 171 143 104
658.535428 -112.477422 788.549507 189 153 124
658.535428 -115.035875 788.549507 191 154 126
662.142063 -118.073721 781.957659 191 150 123
662.142063 -120.650319 781.957659 188 147 120
648.671458 -81.2608741 801.685666 214 174 135
648.671458 -83.7778527 801.685666 180 141 101
647.644329 -86.2200736 803.573028 147 121 73
647.644329 -88.7318679 803.573028 139 113 65
647.644329 -91.2436622 803.573028 128 112 56
647.644329 -93.7554565 803.573028 124 108 52
649.185023 -96.410493 800.741985 112 103 43
649.185023 -98.9300638 800.741985 112 103 43
650.212153 -101.555498 798.854623 113 105 44
650.212153 -104.080253 798.854623 105 96 36
652.779977 -106.895588 794.136217 103 91 36
652.779977 -109.433304 794.136217 104 92 37
654.320672 -112.160921 791.305174 117 94 54
654.320672 -114.706413 791.305174 148 125 85
656.888496 -117.594328 786.586769 179 143 112
656.888496 -120.152781 786.586769 188 152 121
657.915625 -122.858572 784.699407 185 146 119
657.915625 -125.42221 784.699407 181 142 114
663.564839 -128.853232 774.318915 181 138 112
644.491743 -78.5958837 804.483094 200 159 118
643.979846 -81.067707 805.428764 147 123 72
643.979846 -83.5691327 805.428764 142 119 67
643.979846 -86.0705583 805.428764 140 130 67
643.979846 -88.571984 805.428764 138 127 65
643.979846 -91.0734097 805.428764 131 126 57
643.979846 -93.5748354 805.428764 126 122 53
643.979846 -96.0762611 805.428764 121 119 49
643.979846 -98.5776868 805.428764 118 115 46
643.979846 -101.079112 805.428764 114 114 43
643.979846 -103.580538 805.428764 112 112 41
644.491743 -106.14008 804.483094 106 105 37
644.491743 -108.644098 804.483094 102 102 34
645.515535 -111.274716 802.591755 99 95 37
645.515535 -113.783918 802.591755 93 89 31
649.610705 -116.840997 795.026397 115 92 50
649.610705 -119.370937 795.026397 136 113 71
655.241563 -122.711234 784.624031 168 134 103
655.241563 -125.269687 784.624031 182 148 117
658.31294 -128.30126 778.950013 178 139 112
658.31294 -130.875266 778.950013 177 138 110
641.349168 -76.0108352 805.405091 162 136 86
641.349168 -78.5070766 805.405091 142 116 65
640.838941 -80.9711234 806.35275 125 120 54
640.838941 -83.4647727 806.35275 138 133 66
640.838941 -85.9584219 806.35275 143 141 69
640.838941 -88.4520711 806.35275 135 133 61
640.328713 -90.9031572 807.300408 129 128 53
640.328713 -93.3942143 807.300408 128 127 52
640.328713 -95.8852714 807.300408 124 125 50
640.328713 -98.3763285 807.300408 123 124 49
640.328713 -100.867386 807.300408 121 122 46
640.328713 -103.358443 807.300408 121 122 46
640.838941 -105.907616 806.35275 115 118 42
640.838941 -108.401265 806.35275 111 114 38
640.838941 -110.894914 806.35275 103 107 35
640.838941 -113.388563 806.35275 96 100 28
642.879851 -116.156151 802.562117 87 86 25
642.879851 -118.660169 802.562117 84 82 21
648.492355 -121.974545 792.137876 99 81 39
648.492355 -124.507077 792.137876 134 116 74
656.655996 -128.30126 776.975344 180 149 119
656.655996 -130.875266 776.975344 175 143 113
660.227589 -134.037534 770.341736 176 137 109
660.227589 -136.629685 770.341736 178 139 112
640.759401 -73.5634299 801.590786 169 130 89
638.725165 -75.9568148 805.389373 130 115 54
638.725165 -78.4478718 805.389373 137 122 61
638.725165 -80.9389289 805.389373 134 133 58
638.725165 -83.429986 805.389373 139 137 63
638.725165 -85.9210431 805.389373 138 136 62
638.725165 -88.4121002 805.389373 132 130 56
637.708047 -90.818031 807.288667 129 128 53
637.708047 -93.3039038 807.288667 129 128 53
637.708047 -95.7897766 807.288667 127 128 50
637.708047 -98.2756493 807.288667 127 128 50
637.199488 -100.70859 808.238314 125 129 50
637.199488 -103.191871 808.238314 123 126 48
637.199488 -105.675152 808.238314 120 124 48
637.199488 -108.158432 808.238314 116 119 43
638.725165 -110.831614 805.389373 110 116 36
638.725165 -113.322671 805.389373 103 109 29
639.233724 -115.882213 804.439727 93 100 27
639.233724 -118.375862 804.439727 87 94 21
641.26796 -121.164187 800.641139 84 85 28
641.26796 -123.668205 800.641139 74 74 17
646.862108 -127.039608 790.195024 133 109 73
646.862108 -129.57214 790.195024 177 153 118
658.558965 -134.037534 768.353146 175 139 110
658.558965 -136.629685 768.353146 174 138 109
641.176739 -68.6375136 795.865255 226 177 141
637.628507 -70.9965265 802.526704 166 140 90
637.628507 -73.4901757 802.526704 147 121 71
636.614726 -75.9298046 804.429974 136 124 55
636.614726 -78.4182695 804.429974 145 134 65
635.600946 -80.8423454 806.333245 138 134 58
635.600946 -83.325626 806.333245 136 132 56
635.094055 -85.7715278 807.284881 133 132 55
635.094055 -88.2522163 807.284881 129 128 51
634.587165 -90.6903416 808.236516 124 125 50
634.587165 -93.168438 808.236516 124 125 50
633.573384 -95.5510395 810.139787 126 126 51
633.573384 -98.0239515 810.139787 128 129 53
633.573384 -100.496863 810.139787 127 131 55
633.573384 -102.969776 810.139787 123 126 50
635.094055 -105.617036 807.284881 122 128 49
635.094055 -108.097724 807.284881 119 125 46
635.600946 -110.641713 806.333245 119 125 44
635.600946 -113.124994 806.333245 117 123 41
636.614726 -115.745243 804.429974 103 112 32
636.614726 -118.233708 804.429974 96 105 25
637.628507 -120.869511 802.526704 85 91 23
637.628507 -123.36316 802.526704 73 80 11
640.162959 -126.251076 797.768526 81 67 26
640.162959 -128.757686 797.768526 134 120 80
656.89034 -139.221836 766.364557 179 137 112
656.89034 -141.813987 766.364557 176 135 110
637.538955 -68.5605786 797.752808 205 161 122
635.012847 -70.9528747 802.520929 147 132 71
635.012847 -73.4413396 802.520929 142 127 66
633.497181 -75.8487739 805.381801 146 138 63
633.497181 -78.3294624 805.381801 175 167 92
631.981516 -80.7135673 808.242673 144 139 61
631.981516 -83.1864793 808.242673 136 131 53
631.981516 -85.6593914 808.242673 129 130 55
631.981516 -88.1323034 808.242673 122 123 48
630.465851 -90.4775261 811.103545 116 119 43
630.465851 -92.9426616 811.103545 115 118 42
630.465851 -95.4077972 811.103545 123 126 52
630.465851 -97.8729328 811.103545 127 130 57
630.465851 -100.338068 811.103545 113 116 43
630.465851 -102.803204 811.103545 86 88 15
631.981516 -105.442688 808.242673 118 122 43
631.981516 -107.9156 808.242673 123 126 48
631.981516 -110.388512 808.242673 124 128 47
631.981516 -112.861424 808.242673 122 126 45
632.99196 -115.471305 806.335425 115 122 38
632.99196 -117.949401 806.335425 108 115 31
634.507625 -120.648504 803.474553 99 106 31
634.507625 -123.134377 803.474553 81 89 13
636.02329 -125.85681 800.61368 75 69 19
636.02329 -128.350459 800.61368 82 76 26
643.096394 -132.020634 787.262944 165 136 105
643.096394 -134.550573 787.262944 175 146 115
655.221715 -139.221836 764.375967 177 136 109
655.221715 -141.813987 764.375967 174 133 106
655.221715 -144.406138 764.375967 175 129 103
633.91452 -65.9925864 799.65627 205 171 125
633.91452 -68.4836435 799.65627 163 129 83
631.900308 -70.887397 803.47872 142 137 66
631.900308 -73.3680854 803.47872 139 135 64
630.389648 -75.7677433 806.345558 139 136 55
630.389648 -78.2406553 806.345558 180 177 96
628.878989 -80.6169838 809.212396 144 141 62
628.878989 -83.0821193 809.212396 129 126 47
628.878989 -85.5472549 809.212396 122 123 48
628.878989 -88.0123905 809.212396 107 108 32
627.36833 -90.3498367 812.079234 96 101 26
627.36833 -92.8071958 812.079234 99 104 30
627.36833 -95.2645549 812.079234 110 112 41
627.36833 -97.721914 812.079234 120 123 52
627.36833 -100.179273 812.079234 123 126 52
627.36833 -102.636632 812.079234 79 81 8
628.878989 -105.268339 809.212396 93 94 18
628.878989 -107.733475 809.212396 145 146 71
628.878989 -110.198611 809.212396 152 154 74
628.878989 -112.663746 809.212396 135 136 56
629.382542 -115.197366 808.256784 124 130 46
629.382542 -117.665094 808.256784 115 122 38
630.389648 -120.28016 806.345558 110 118 43
630.389648 -122.753072 806.345558 94 102 26
632.907414 -125.62025 801.567495 78 76 19
632.907414 -128.106123 801.567495 73 71 15
636.935838 -131.264296 793.922594 118 96 63
636.935838 -133.770906 793.922594 167 145 112
649.524666 -138.508062 770.032279 174 138 109
649.524666 -141.079475 770.032279 172 136 107
649.524666 -143.650889 770.032279 179 134 108
631.307203 -65.9593032 799.660438 171 145 92
631.307203 -68.445176 799.660438 153 128 75
627.794011 -70.7782674 806.363646 142 143 67
627.794011 -73.2459951 806.363646 140 140 65
627.292127 -75.6867126 807.321248 136 138 55
627.292127 -78.1518482 807.321248 164 166 83
625.284589 -80.4882057 811.151652 136 138 58
625.284589 -82.9429727 811.151652 120 121 41
624.782705 -85.3603608 812.109254 110 115 38
624.782705 -87.8125356 812.109254 101 107 30
624.28082 -90.2221473 813.066855 84 89 17
624.28082 -92.67173 813.066855 80 85 13
624.28082 -95.1213127 813.066855 96 100 30
624.28082 -97.5708953 813.066855 111 115 45
624.782705 -100.07341 812.109254 123 125 54
624.782705 -102.525585 812.109254 107 109 38
625.284589 -105.035875 811.151652 68 71 0
625.284589 -107.490642 811.151652 130 133 59
625.786474 -110.00871 810.194051 164 166 85
625.786474 -112.466069 810.194051 149 150 70
627.292127 -115.128882 807.321248 143 147 66
627.292127 -117.594017 807.321248 122 126 45
627.292127 -120.059153 807.321248 109 117 39
627.292127 -122.524288 807.321248 109 117 39
628.79778 -125.225984 804.448444 84 88 23
628.79778 -127.698896 804.448444 69 73 8
632.812856 -130.844108 796.787634 80 63 26
632.812856 -133.337757 796.787634 137 120 83
641.846776 -137.4374 779.550812 177 143 114
641.846776 -139.977708 779.550812 170 136 107
647.86939 -143.650889 768.059598 176 135 108
647.86939 -146.222303 768.059598 179 137 110
632.208071 -63.5436777 792.955432 213 166 129
627.205912 -65.8760952 802.55133 148 130 73
627.205912 -68.3490072 802.55133 152 134 76
625.705265 -70.7564415 805.430099 138 142 63
625.705265 -73.2215771 805.430099 143 146 68
623.204186 -75.5516616 810.228048 130 140 52
623.204186 -78.0038364 810.228048 135 144 57
622.203754 -80.3916222 812.147228 120 128 46
622.203754 -82.8386127 812.147228 116 125 42
622.203754 -85.2856032 812.147228 104 113 35
622.203754 -87.7325937 812.147228 92 100 22
621.703538 -90.1370211 813.106817 79 84 14
621.703538 -92.5814195 813.106817 69 73 4
621.703538 -95.0258178 813.106817 78 83 13
621.703538 -97.4702162 813.106817 99 104 34
622.70397 -100.020478 811.187638 118 120 51
622.70397 -102.470061 811.187638 123 125 56
622.70397 -104.919643 811.187638 62 64 0
622.70397 -107.369226 811.187638 100 102 33
623.704401 -109.945409 809.268458 153 155 75
623.704401 -112.400176 809.268458 152 154 74
624.204617 -114.923428 808.308868 167 166 85
624.204617 -117.380787 808.308868 131 130 49
624.704833 -119.911815 807.349279 113 119 40
624.704833 -122.371766 807.349279 108 114 35
625.705265 -124.989424 805.430099 96 103 35
625.705265 -127.45456 805.430099 66 73 4
630.707423 -130.760071 795.834201 72 61 17
630.707423 -133.251128 795.834201 81 70 26
636.710013 -136.812847 784.319123 171 139 111
636.710013 -139.33501 784.319123 169 137 109
645.213683 -143.462077 768.006097 172 134 106
645.213683 -146.028306 768.006097 175 136 108
629.103875 -63.5015294 793.923167 184 142 102
624.61695 -65.842812 802.577372 142 132 68
624.61695 -68.3105397 802.577372 148 138 73
622.622761 -70.6909638 806.423686 134 140 59
622.622761 -73.1483229 806.423686 143 150 68
620.130025 -75.4706309 811.231578 140 152 66
620.130025 -77.9150293 811.231578 117 128 43
619.631478 -80.3272331 812.193156 114 128 42
619.631478 -82.7690393 812.193156 113 127 40
619.631478 -85.2108456 812.193156 104 115 36
619.631478 -87.6526518 812.193156 95 105 27
619.631478 -90.094458 812.193156 78 85 14
619.631478 -92.5362642 812.193156 68 75 5
619.631478 -94.9780704 812.193156 71 75 8
619.631478 -97.4198766 812.193156 85 89 22
620.130025 -99.9146145 811.231578 103 105 38
620.130025 -102.359013 811.231578 90 92 25
620.628572 -104.861527 810.269999 55 54 0
620.628572 -107.308518 810.269999 106 105 39
621.127119 -109.818809 809.308421 153 155 75
621.127119 -112.268391 809.308421 149 150 70
621.625667 -114.786459 808.346842 162 157 76
621.625667 -117.238633 808.346842 159 154 74
622.124214 -119.764477 807.385264 119 120 40
622.124214 -122.219244 807.385264 105 106 26
624.118403 -124.989424 803.53895 102 109 38
624.118403 -127.45456 803.53895 71 78 7
627.608233 -130.507958 796.807902 72 63 16
627.608233 -132.991239 796.807902 68 60 13
632.593705 -136.366738 787.192118 143 117 85
632.593705 -138.87594 787.192118 169 142 110
642.066103 -143.178858 768.922128 170 133 107
642.066103 -145.737311 768.922128 170 133 107
646.05448 -149.092488 761.229501 186 140 115
627.003448 -63.4874799 792.975699 157 123 78
622.531541 -65.8261704 801.647802 145 141 69
622.531541 -68.2913059 801.647802 142 137 66
619.550269 -70.625486 807.429204 130 139 54
619.550269 -73.0750687 807.429204 151 160 75
617.562755 -75.4166105 811.283472 137 149 60
617.562755 -77.8558246 811.283472 120 132 44
617.065876 -80.2628441 812.247039 115 126 40
617.065876 -82.699466 812.247039 109 120 35
617.065876 -85.1360879 812.247039 106 117 36
617.065876 -87.5727098 812.247039 98 109 28
617.065876 -90.0093317 812.247039 80 87 16
617.065876 -92.4459537 812.247039 68 75 5
617.562755 -94.930323 811.283472 67 73 8
617.562755 -97.369537 811.283472 70 76 10
618.059633 -99.8616828 810.319905 103 104 40
618.059633 -102.303489 810.319905 75 76 12
618.556512 -104.803411 809.356338 59 59 0
618.556512 -107.24781 809.356338 119 119 48
618.556512 -109.692208 809.356338 145 147 67
618.556512 -112.136606 809.356338 140 141 61
619.05339 -114.649489 808.392771 150 150 68
619.05339 -117.09648 808.392771 167 166 85
619.550269 -119.617139 807.429204 129 132 54
619.550269 -122.066722 807.429204 107 110 32
621.040905 -124.752864 804.538503 96 105 36
621.040905 -127.210223 804.538503 75 84 15
623.028419 -130.003733 800.684235 70 70 18
623.028419 -132.47146 800.684235 63 63 11
629.487841 -136.099072 788.157864 94 71 40
629.487841 -138.600498 788.157864 155 133 102
640.41917 -143.178858 766.959391 165 130 105
640.41917 -145.737311 766.959391 159 124 99
644.394199 -149.092488 759.250855 174 130 107
624.411148 -60.9761004 792.997764 198 169 120
624.411148 -63.459381 792.997764 151 123 73
619.954259 -65.7928871 801.687764 141 142 66
619.954259 -68.2528384 801.687764 135 136 60
616.982999 -70.5818342 807.481098 127 139 51
616.982999 -73.0262326 807.481098 141 153 65
615.497369 -75.3896003 810.377764 130 145 56
615.497369 -77.8262222 810.377764 123 138 49
615.002159 -80.2306496 811.34332 118 132 45
615.002159 -82.6646794 811.34332 114 128 42
615.002159 -85.0987091 811.34332 105 116 35
615.002159 -87.5327389 811.34332 94 104 23
615.002159 -89.9667686 811.34332 80 89 18
615.002159 -92.4007984 811.34332 66 75 4
615.497369 -94.8825756 810.377764 64 69 6
615.497369 -97.3191975 810.377764 63 68 5
615.497369 -99.7558194 810.377764 90 92 25
615.497369 -102.192441 810.377764 95 97 30
615.992579 -104.687179 809.412209 115 118 42
615.992579 -107.126393 809.412209 138 141 65
616.487789 -109.628908 808.446653 137 141 58
616.487789 -112.070714 808.446653 136 140 57
616.487789 -114.51252 808.446653 147 152 68
616.487789 -116.954326 808.446653 153 157 74
616.487789 -119.396133 808.446653 117 125 48
616.487789 -121.837939 808.446653 106 114 36
617.973419 -124.516305 805.549987 94 102 34
617.973419 -126.965887 805.549987 77 86 17
619.954259 -129.75162 801.687764 67 71 18
619.954259 -132.211571 801.687764 60 64 11
626.887198 -135.920628 788.169986 81 64 31
626.887198 -138.41687 788.169986 137 120 87
640.257867 -143.462077 762.099986 152 120 95
640.257867 -146.028306 762.099986 149 117 91
644.219547 -149.391259 754.375541 159 117 95
620.83844 -60.9302711 794.962872 170 147 93
620.83844 -63.4031832 794.962872 152 128 75
616.89011 -65.7429623 802.703225 141 142 66
616.89011 -68.1951371 802.703225 134 135 59
614.422403 -70.5381824 807.540946 129 139 51
614.422403 -72.9773964 807.540946 134 143 56
613.43532 -75.3625901 809.476035 128 143 53
613.43532 -77.7966198 809.476035 126 140 51
613.43532 -80.2306496 809.476035 120 134 49
613.43532 -82.6646794 809.476035 120 134 49
613.43532 -85.0987091 809.476035 105 118 38
613.43532 -87.5327389 809.476035 93 106 27
613.43532 -89.9667686 809.476035 87 95 27
613.43532 -92.4007984 809.476035 67 76 7
613.43532 -94.8348281 809.476035 62 70 6
613.43532 -97.2688579 809.476035 62 70 6
613.43532 -99.7028877 809.476035 64 68 1
613.43532 -102.136917 809.476035 98 102 35
613.43532 -104.570947 809.476035 131 135 56
613.43532 -107.004977 809.476035 140 144 65
613.928862 -109.502307 808.50849 129 138 53
613.928862 -111.938929 808.50849 128 137 52
613.928862 -114.375551 808.50849 127 135 53
613.928862 -116.812173 808.50849 122 131 48
613.928862 -119.248795 808.50849 100 113 34
613.928862 -121.685417 808.50849 99 112 32
614.915944 -124.279745 806.573402 97 108 36
614.915944 -126.721551 806.573402 75 86 14
618.370734 -129.75162 799.800593 64 71 17
618.370734 -132.211571 799.800593 56 63 8
624.29323 -135.742185 788.190063 81 69 34
624.29323 -138.233242 788.190063 108 96 61
633.176974 -142.423609 770.774268 137 107 81
633.176974 -144.961325 770.774268 135 105 78
640.580094 -148.992898 756.261106 142 103 80
619.246572 -60.9302711 793.065758 160 140 85
619.246572 -63.4031832 793.065758 152 132 77
615.311591 -65.7429623 800.82202 138 139 64
615.311591 -68.1951371 800.82202 133 133 58
612.852227 -70.5381824 805.669683 129 139 51
612.852227 -72.9773964 805.669683 130 140 52
611.868482 -75.3625901 807.608749 131 143 55
611.868482 -77.7966198 807.608749 133 145 57
611.376609 -80.1984551 808.578282 133 146 62
611.376609 -82.6298927 808.578282 112 125 41
611.376609 -85.0613303 808.578282 107 120 41
611.376609 -87.4927679 808.578282 95 108 29
610.884736 -89.8816424 809.547814 86 98 26
610.884736 -92.3104878 809.547814 73 85 13
610.884736 -94.7393333 809.547814 63 74 6
610.884736 -97.1681788 809.547814 63 74 6
610.884736 -99.5970242 809.547814 59 66 0
610.884736 -102.02587 809.547814 111 118 48
611.376609 -104.512831 808.578282 130 134 53
611.376609 -106.944269 808.578282 139 143 62
611.868482 -109.439007 807.608749 130 141 55
611.868482 -111.873036 807.608749 123 134 49
611.868482 -114.307066 807.608749 114 127 46
611.868482 -116.741096 807.608749 102 116 34
611.868482 -119.175126 807.608749 92 107 27
611.868482 -121.609155 807.608749 92 107 27
612.852227 -124.200892 805.669683 94 106 36
612.852227 -126.640106 805.669683 72 84 14
617.770954 -129.919695 795.974356 63 70 15
617.770954 -132.384831 795.974356 61 68 13
622.197809 -135.652963 787.248561 75 65 30
622.197809 -138.141428 787.248561 101 91 55
628.592154 -141.857172 774.644636 124 94 68
628.592154 -144.379335 774.644636 126 97 70
636.95399 -148.594536 758.162579 132 95 71
618.635113 -60.9531858 789.225601 158 137 83
618.635113 -63.4312821 789.225601 152 132 77
614.223276 -65.7596039 797.969293 136 139 61
614.223276 -68.2143709 797.969293 132 136 57
610.791847 -70.5163565 804.769942 129 139 51
610.791847 -72.9529784 804.769942 141 150 63
610.301643 -75.3625901 805.741463 141 150 65
610.301643 -77.7966198 805.741463 142 151 66
609.321235 -80.1662606 807.684506 166 175 92
609.321235 -82.595106 807.684506 118 127 45
609.321235 -85.0239515 807.684506 100 113 34
609.321235 -87.4527969 807.684506 99 112 32
608.831031 -89.8390793 808.656027 91 103 26
608.831031 -92.2653326 808.656027 80 93 16
608.831031 -94.6915859 808.656027 76 87 17
608.831031 -97.1178392 808.656027 72 84 14
608.831031 -99.5440925 808.656027 66 75 4
608.831031 -101.970346 808.656027 90 99 28
609.321235 -104.454715 807.684506 129 135 58
609.321235 -106.883561 807.684506 140 145 69
609.321235 -109.312406 807.684506 140 153 71
609.321235 -111.741251 807.684506 127 140 58
609.321235 -114.170097 807.684506 102 117 37
609.321235 -116.598942 807.684506 97 113 32
609.811439 -119.101457 806.712985 90 105 27
609.811439 -121.532894 806.712985 89 104 26
610.301643 -124.043185 805.741463 88 100 30
610.301643 -126.477215 805.741463 79 90 21
614.223276 -129.583545 797.969293 62 68 16
614.223276 -132.038312 797.969293 60 66 14
619.615521 -135.474519 787.282558 74 64 27
619.615521 -137.9578 787.282558 95 85 48
626.968582 -141.857172 772.709738 115 88 63
626.968582 -144.379335 772.709738 117 89 64
635.302052 -148.594536 756.193875 123 88 63
616.062837 -60.9302711 789.271529 156 135 81
616.062837 -63.4031832 789.271529 155 134 79
612.643088 -65.7596039 796.086098 137 141 60
612.643088 -68.2143709 796.086098 132 136 55
609.22334 -70.5163565 802.900668 130 140 52
609.22334 -72.9529784 802.900668 138 148 60
608.246269 -75.3355799 804.847688 142 151 66
608.246269 -77.7670175 804.847688 138 147 62
607.757734 -80.1662606 805.821198 177 184 100
607.757734 -82.595106 805.821198 137 144 60
607.269198 -84.9865727 806.794708 104 115 32
607.269198 -87.412826 806.794708 105 116 33
606.780663 -89.7965161 807.768218 94 107 28
606.780663 -92.2201773 807.768218 88 101 22
606.780663 -94.6438385 807.768218 85 95 21
606.780663 -97.0674996 807.768218 81 90 17
606.780663 -99.4911608 807.768218 80 89 18
606.780663 -101.914822 807.768218 78 88 16
607.269198 -104.396599 806.794708 128 139 62
607.269198 -106.822852 806.794708 152 162 86
607.269198 -109.249106 806.794708 145 160 80
607.269198 -111.675359 806.794708 122 137 57
607.269198 -114.101612 806.794708 94 109 29
607.269198 -116.527866 806.794708 96 111 31
607.757734 -119.027788 805.821198 89 104 26
607.757734 -121.456633 805.821198 89 104 26
608.734805 -124.043185 803.874178 90 99 32
608.734805 -126.477215 803.874178 77 86 19
612.154553 -129.499507 797.059608 64 68 16
612.154553 -131.951682 797.059608 61 65 14
617.528443 -135.385297 786.350999 76 69 30
617.528443 -137.865986 786.350999 90 82 44
623.390869 -141.479548 774.66888 114 89 61
623.390869 -143.991342 774.66888 113 88 60
632.673042 -148.395355 756.172191 123 88 63
614.470969 -60.9302711 787.374415 154 136 79
614.470969 -63.4031832 787.374415 150 132 74
610.576034 -65.7429623 795.178403 138 140 62
610.576034 -68.1951371 795.178403 135 136 58
607.654833 -70.5163565 801.031394 130 141 55
607.654833 -72.9529784 801.031394 128 140 54
606.681099 -75.3355799 802.982391 133 145 59
606.681099 -77.7670175 802.982391 140 152 66
605.707365 -80.134066 804.933388 151 161 73
605.707365 -82.5603194 804.933388 138 148 60
605.220499 -84.9491938 805.908886 109 118 33
605.220499 -87.372855 805.908886 110 120 35
604.246765 -89.7113899 807.859883 102 113 32
604.246765 -92.1298668 807.859883 92 103 22
604.246765 -94.5483436 807.859883 90 100 24
604.246765 -96.9668205 807.859883 88 98 22
604.246765 -99.3852973 807.859883 85 95 21
604.246765 -101.803774 807.859883 84 94 20
604.246765 -104.222251 807.859883 113 125 50
604.246765 -106.640728 807.859883 155 167 92
604.246765 -109.059205 807.859883 124 139 59
604.246765 -111.477682 807.859883 108 123 43
604.733632 -113.964643 806.884385 96 112 29
604.733632 -116.385712 806.884385 93 108 26
605.707365 -118.954119 804.933388 91 103 26
605.707365 -121.380372 804.933388 90 102 25
606.194232 -123.885479 803.957889 83 92 25
606.194232 -126.314324 803.957889 67 75 9
610.089167 -129.41547 796.153901 65 69 15
610.089167 -131.865053 796.153901 61 66 12
615.444702 -135.296075 785.423418 76 70 31
615.444702 -137.774172 785.423418 84 79 39
621.773971 -141.479548 772.741937 109 86 57
621.773971 -143.991342 772.741937 110 87 59
630.537574 -148.295764 755.182964 128 93 71
612.879101 -60.9302711 785.4773 157 138 83
612.879101 -63.4031832 785.4773 147 129 74
608.997515 -65.7429623 793.297197 137 138 63
608.997515 -68.1951371 793.297197 136 137 62
605.601127 -70.4945306 800.139607 131 140 55
605.601127 -72.9285603 800.139607 129 138 53
605.115929 -75.3355799 801.117094 127 139 51
605.115929 -77.7670175 801.117094 130 142 53
604.145533 -80.134066 803.072068 135 144 57
604.145533 -82.5603194 803.072068 135 144 57
603.175136 -84.911815 805.027042 120 129 44
603.175136 -87.332884 805.027042 111 121 36
602.689938 -89.7113899 806.004529 109 118 35
602.689938 -92.1298668 806.004529 97 106 24
601.719542 -94.4528488 807.959504 90 101 20
601.719542 -96.8661413 807.959504 89 100 19
601.719542 -99.2794339 807.959504 89 99 23
601.719542 -101.692726 807.959504 90 100 24
601.719542 -104.106019 807.959504 96 111 33
601.719542 -106.519312 807.959504 123 138 60
601.719542 -108.932604 807.959504 112 128 46
601.719542 -111.345897 807.959504 104 120 37
602.20474 -113.827674 806.982017 100 113 34
602.20474 -116.243559 806.982017 93 106 27
603.175136 -118.806781 805.027042 89 99 25
603.175136 -121.22785 805.027042 87 96 22
604.145533 -123.806626 803.072068 69 78 11
604.145533 -126.232879 803.072068 68 76 10
608.027118 -129.331432 795.252171 67 74 17
608.027118 -131.778423 795.252171 63 70 13
613.849497 -135.296075 783.522326 76 70 31
613.849497 -137.774172 783.522326 81 76 37
625.009056 -142.423609 761.040123 106 86 56
625.009056 -144.961325 761.040123 107 87 57
628.890642 -148.295764 753.220226 129 96 73
610.320173 -60.9073565 785.539137 158 139 84
610.320173 -63.3750842 785.539137 141 123 68
606.935466 -65.7263207 792.395467 133 133 60
606.935466 -68.1759034 792.395467 135 135 62
604.034289 -70.4945306 798.272321 128 140 54
604.034289 -72.9285603 798.272321 126 138 52
603.06723 -75.3085697 800.231273 127 139 51
603.06723 -77.7374151 800.231273 131 143 55
602.10017 -80.1018715 802.190224 131 143 55
602.10017 -82.5255327 802.190224 132 144 56
601.133111 -84.8744362 804.149175 129 139 51
601.133111 -87.2929131 804.149175 121 130 43
600.166052 -89.6262637 806.108127 114 121 37
600.166052 -92.0395562 806.108127 104 111 26
598.715463 -94.3096065 809.046554 94 105 21
598.715463 -96.7151226 809.046554 94 105 21
598.715463 -99.1206387 809.046554 93 106 27
598.715463 -101.526155 809.046554 92 105 25
598.715463 -103.931671 809.046554 103 118 40
598.715463 -106.337187 809.046554 111 126 48
598.715463 -108.742703 809.046554 107 120 39
598.715463 -111.148219 809.046554 92 105 23
598.715463 -113.553735 809.046554 96 106 30
598.715463 -115.959251 809.046554 92 102 26
600.649582 -118.659443 805.128651 87 94 21
600.649582 -121.075328 805.128651 80 87 14
602.5837 -123.806626 801.210748 71 77 11
602.5837 -126.232879 801.210748 71 77 11
605.968407 -129.247395 794.354419 68 75 20
605.968407 -131.691793 794.354419 66 72 18
611.287233 -135.117632 783.580186 74 69 30
611.287233 -137.590544 783.580186 86 81 42
622.408413 -142.234797 761.052245 106 86 54
622.408413 -144.767329 761.052245 104 84 52
626.76018 -148.196174 752.236964 135 104 80
608.731643 -60.9073565 783.646 163 142 88
608.731643 -63.3750842 783.646 138 118 63
605.358616 -65.7263207 790.51625 132 135 61
605.358616 -68.1759034 790.51625 133 136 62
602.46745 -70.4945306 796.405036 128 140 54
602.46745 -72.9285603 796.405036 127 139 53
601.021867 -75.2815594 799.349429 127 139 51
601.021867 -77.7078127 799.349429 132 144 56
600.058145 -80.069677 801.312357 133 145 57
600.058145 -82.490746 801.312357 133 145 57
599.094423 -84.8370574 803.275286 130 140 52
599.094423 -87.2529421 803.275286 131 141 53
597.166979 -89.4985743 807.201143 134 141 57
597.166979 -91.9040904 807.201143 112 119 35
596.685118 -94.2618591 808.182607 100 109 26
596.685118 -96.664783 808.182607 100 109 26
596.685118 -99.067707 808.182607 97 108 27
596.685118 -101.470631 808.182607 101 111 30
595.721397 -103.757323 810.145536 107 120 41
595.721397 -106.155062 810.145536 112 125 45
595.721397 -108.552802 810.145536 107 120 41
595.721397 -110.950542 810.145536 99 112 32
596.685118 -113.485251 808.182607 91 101 27
596.685118 -115.888175 808.182607 80 89 16
598.130701 -118.512105 805.238214 73 82 13
598.130701 -120.922806 805.238214 77 86 17
600.058145 -123.648919 801.312357 74 80 17
600.058145 -126.069988 801.312357 72 78 14
603.913033 -129.163357 793.460643 67 71 18
603.913033 -131.605164 793.460643 66 70 17
609.695365 -135.117632 781.683072 73 68 29
609.695365 -137.590544 781.683072 87 82 43
620.296306 -142.140391 760.090857 109 86 57
620.296306 -144.67033 760.090857 108 85 56
625.114916 -148.196174 750.276214 140 110 86
607.143112 -60.9073565 781.752863 185 157 105
607.143112 -63.3750842 781.752863 145 117 65
603.301573 -65.7096791 789.620486 138 141 67
603.301573 -68.1566696 789.620486 131 134 60
600.420419 -70.4727047 795.521203 124 135 50
600.420419 -72.9041423 795.521203 121 133 47
599.460034 -75.2815594 797.488109 123 135 46
599.460034 -77.7078127 797.488109 124 136 48
598.019457 -80.0374825 800.438468 130 142 53
598.019457 -82.4559594 800.438468 130 142 53
596.57888 -84.7622998 803.388826 125 135 48
596.57888 -87.1730002 803.388826 128 137 50
595.618496 -89.4985743 805.355732 138 147 62
595.618496 -91.9040904 805.355732 124 134 49
594.177919 -94.1663642 808.306091 105 116 35
594.177919 -96.5641039 808.306091 105 116 35
594.177919 -98.9618435 808.306091 105 116 35
594.177919 -101.359583 808.306091 108 118 37
593.217534 -103.641091 810.272996 108 118 37
593.217534 -106.033646 810.272996 111 122 41
593.217534 -108.426201 810.272996 104 116 37
593.217534 -110.818757 810.272996 93 106 27
594.177919 -113.348281 808.306091 84 94 22
594.177919 -115.746021 808.306091 67 76 5
595.618496 -118.364767 805.355732 68 77 8
595.618496 -120.770284 805.355732 80 89 20
598.49965 -123.648919 799.455015 80 88 24
598.49965 -126.069988 799.455015 70 78 14
602.341189 -129.163357 791.587392 67 73 21
602.341189 -131.605164 791.587392 63 69 17
608.103497 -135.117632 779.785957 76 70 31
608.103497 -137.590544 779.785957 87 82 43
614.345997 -141.290736 767.00107 108 85 56
614.345997 -143.797346 767.00107 115 92 63
623.469652 -148.196174 748.315465 142 111 87
605.554581 -60.9073565 779.859726 208 175 125
605.554581 -63.3750842 779.859726 157 124 74
599.812297 -65.6431127 791.685023 142 142 69
599.812297 -68.0797346 791.685023 124 125 52
598.855249 -70.4727047 793.655906 121 130 45
598.855249 -72.9041423 793.655906 120 129 44
597.898202 -75.2815594 795.626789 117 128 43
597.898202 -77.7078127 795.626789 117 128 43
596.462631 -80.0374825 798.583114 120 132 46
596.462631 -82.4559594 798.583114 121 133 47
594.070012 -84.6875421 803.510321 120 132 46
594.070012 -87.0930582 803.510321 120 132 46
593.591488 -89.4560112 804.495762 120 132 48
593.591488 -91.8589351 804.495762 120 132 48
592.634441 -94.1663642 806.466645 112 123 44
592.634441 -96.5641039 806.466645 106 117 38
591.677393 -98.8559801 808.437528 108 118 39
591.677393 -101.248535 808.437528 106 117 38
591.677393 -103.641091 808.437528 106 117 38
591.677393 -106.033646 808.437528 101 111 32
591.677393 -108.426201 808.437528 94 103 29
591.677393 -110.818757 808.437528 88 97 24
592.634441 -113.348281 806.466645 78 87 18
592.634441 -115.746021 806.466645 67 76 7
594.070012 -118.364767 803.510321 62 71 4
594.070012 -120.770284 803.510321 87 95 29
596.941154 -123.648919 797.597672 84 92 30
596.941154 -126.069988 797.597672 76 84 22
601.247868 -129.247395 788.728699 64 71 19
601.247868 -131.691793 788.728699 63 69 17
606.511629 -135.117632 777.888843 77 71 34
606.511629 -137.590544 777.888843 85 79 43
612.732437 -141.290736 765.078104 99 78 51
612.732437 -143.797346 765.078104 118 97 70
603.966051 -60.9073565 777.966588 226 190 143
603.966051 -63.3750842 777.966588 160 124 77
598.243789 -65.6431127 789.815749 143 138 67
598.243789 -68.0797346 789.815749 130 126 54
596.813224 -70.4508787 792.778039 126 133 49
596.813224 -72.8797242 792.778039 125 132 47
595.382659 -75.227539 795.740329 122 131 46
595.382659 -77.648608 795.740329 121 130 45
594.428949 -80.005288 797.71519 117 128 43
594.428949 -82.4211727 797.71519 117 128 43
592.521528 -84.6875421 801.66491 121 133 47
592.521528 -87.0930582 801.66491 120 132 46
591.090963 -89.370885 804.6272 117 128 47
591.090963 -91.7686246 804.6272 116 127 46
590.137253 -94.0708694 806.60206 112 123 44
590.137253 -96.4634247 806.60206 105 116 37
590.137253 -98.8559801 806.60206 105 116 37
590.137253 -101.248535 806.60206 105 116 37
589.183543 -103.524859 808.57692 104 115 36
589.183543 -105.91223 808.57692 98 109 30
589.183543 -108.299601 808.57692 92 102 28
589.183543 -110.686972 808.57692 88 97 24
590.137253 -113.211312 806.60206 76 85 16
590.137253 -115.603867 806.60206 67 76 7
592.044673 -118.291099 802.65234 70 79 12
592.044673 -120.694022 802.65234 91 100 33
595.382659 -123.648919 795.740329 82 89 30
595.382659 -126.069988 795.740329 70 78 18
600.628065 -129.41547 784.878599 67 73 21
600.628065 -131.865053 784.878599 68 74 22
605.873471 -135.296075 774.016868 78 72 36
605.873471 -137.774172 774.016868 85 79 43
611.118877 -141.290736 763.155138 100 80 52
611.118877 -143.797346 763.155138 126 105 78
603.327893 -63.4031832 774.094614 172 133 89
598.576028 -65.7096791 783.9888 141 131 66
598.576028 -68.1566696 783.9888 133 123 58
595.249723 -70.4508787 790.914731 127 133 52
595.249723 -72.8797242 790.914731 125 131 49
593.824163 -75.227539 793.882987 121 133 47
593.824163 -77.648608 793.882987 121 133 47
592.87379 -80.005288 795.861824 123 134 49
592.87379 -82.4211727 795.861824 121 133 47
590.973045 -84.6875421 799.819499 118 130 44
590.973045 -87.0930582 799.819499 116 127 42
589.547485 -89.370885 802.787755 113 126 46
589.547485 -91.7686246 802.787755 113 126 46
588.597112 -94.0708694 804.766592 107 120 41
588.597112 -96.4634247 804.766592 102 115 36
587.646739 -98.7501166 806.745429 100 113 34
587.646739 -101.137488 806.745429 101 114 35
587.646739 -103.524859 806.745429 101 114 35
587.646739 -105.91223 806.745429 97 110 30
587.646739 -108.299601 806.745429 91 101 27
587.646739 -110.686972 806.745429 80 89 16
588.597112 -113.211312 804.766592 74 83 14
588.597112 -115.603867 804.766592 75 84 15
590.497858 -118.291099 800.808917 78 87 22
590.497858 -120.694022 800.808917 81 89 25
593.824163 -123.648919 793.882987 74 81 24
593.824163 -126.069988 793.882987 69 76 19
599.051215 -129.41547 782.999382 70 76 24
599.051215 -131.865053 782.999382 71 78 26
604.753452 -135.385297 771.126358 79 74 37
604.753452 -137.865986 771.126358 85 79 43
609.980503 -141.385142 760.242753 110 87 61
609.980503 -143.894344 760.242753 130 107 80
601.736025 -63.4031832 772.1975 204 161 118
597.000846 -65.7096791 782.111572 141 124 64
597.000846 -68.1566696 782.111572 136 118 58
593.686221 -70.4508787 789.051423 127 133 54
593.686221 -72.8797242 789.051423 121 127 48
592.265668 -75.227539 792.025644 115 126 42
592.265668 -77.648608 792.025644 116 127 44
590.845114 -79.9730935 794.999866 120 132 46
590.845114 -82.386386 794.999866 119 131 45
589.424561 -84.6875421 797.974088 116 127 44
589.424561 -87.0930582 797.974088 109 120 37
588.004007 -89.370885 800.948309 108 118 37
588.004007 -91.7686246 800.948309 112 123 42
587.056972 -94.0708694 802.931124 106 119 39
587.056972 -96.4634247 802.931124 104 116 37
586.109936 -98.7501166 804.913938 98 111 31
586.109936 -101.137488 804.913938 99 112 32
586.109936 -103.524859 804.913938 98 111 31
586.109936 -105.91223 804.913938 94 107 28
586.109936 -108.299601 804.913938 89 98 27
586.109936 -110.686972 804.913938 77 87 15
587.056972 -113.211312 802.931124 77 86 19
587.056972 -115.603867 802.931124 80 88 22
589.424561 -118.364767 797.974088 76 84 22
589.424561 -120.770284 797.974088 75 83 21
592.739186 -123.727772 791.034237 71 78 21
592.739186 -126.151433 791.034237 70 77 20
598.4214 -129.583545 779.13735 73 77 26
598.4214 -132.038312 779.13735 73 77 26
603.630096 -135.474519 768.231871 81 74 33
603.630096 -137.9578 768.231871 79 72 32
608.365275 -141.385142 758.317798 123 98 72
601.087855 -63.4312821 768.313594 233 185 144
595.425665 -65.7096791 780.234343 167 142 87
595.425665 -68.1566696 780.234343 145 120 65
592.12272 -70.4508787 787.188114 126 130 53
592.12272 -72.8797242 787.188114 124 127 51
590.707172 -75.227539 790.168302 115 125 44
590.707172 -77.648608 790.168302 115 125 44
589.291625 -79.9730935 793.148489 115 126 42
589.291625 -82.386386 793.148489 113 125 41
587.876077 -84.6875421 796.128677 112 123 42
587.876077 -87.0930582 796.128677 105 116 35
586.460529 -89.370885 799.108864 104 115 34
586.460529 -91.7686246 799.108864 112 123 42
585.516831 -94.0708694 801.095656 108 118 39
585.516831 -96.4634247 801.095656 106 117 38
584.573133 -98.7501166 803.082447 101 111 34
584.573133 -101.137488 803.082447 98 108 32
584.573133 -103.524859 803.082447 97 107 31
584.573133 -105.91223 803.082447 95 105 29
585.516831 -108.426201 801.095656 89 98 29
585.516831 -110.818757 801.095656 78 87 18
586.460529 -113.348281 799.108864 76 84 20
586.460529 -115.746021 799.108864 75 83 19
587.876077 -118.364767 796.128677 71 79 17
587.876077 -120.770284 796.128677 70 78 16
591.650871 -123.806626 788.18151 69 76 21
591.650871 -126.232879 788.18151 69 76 21
597.313062 -129.667583 776.26076 73 77 26
597.313062 -132.124942 776.26076 74 78 27
602.031554 -135.474519 766.326802 79 69 31
602.031554 -137.9578 766.326802 94 84 46
606.750046 -141.385142 756.392844 124 99 75
594.790844 -65.7429623 776.366346 202 169 119
594.790844 -68.1951371 776.366346 146 113 63
591.029399 -70.4727047 784.329421 131 127 55
591.029399 -72.9041423 784.329421 130 126 54
589.148677 -75.227539 788.310959 122 130 52
589.148677 -77.648608 788.310959 120 128 50
587.738135 -79.9730935 791.297112 116 127 46
587.738135 -82.386386 791.297112 115 125 44
586.327593 -84.6875421 794.283266 112 123 42
586.327593 -87.0930582 794.283266 106 117 36
584.917052 -89.370885 797.269419 109 119 41
584.917052 -91.7686246 797.269419 113 124 45
583.97669 -94.0708694 799.260188 106 116 42
583.97669 -96.4634247 799.260188 103 113 39
583.97669 -98.8559801 799.260188 99 109 35
583.97669 -101.248535 799.260188 98 108 34
583.036329 -103.524859 801.250956 97 106 35
583.036329 -105.91223 801.250956 92 102 30
583.97669 -108.426201 799.260188 84 92 28
583.97669 -110.818757 799.260188 78 87 22
584.917052 -113.348281 797.269419 74 82 20
584.917052 -115.746021 797.269419 74 82 20
587.738135 -118.585774 791.297112 74 82 20
587.738135 -120.999067 791.297112 71 79 17
590.559219 -123.885479 785.324806 69 76 21
590.559219 -126.314324 785.324806 70 77 22
597.141747 -129.919695 771.389424 75 74 26
597.141747 -132.384831 771.389424 76 75 28
600.903192 -135.563741 763.426349 90 73 40
600.903192 -138.049614 763.426349 108 90 58
594.149349 -68.2336046 772.490395 187 149 102
589.932741 -70.4945306 781.466752 133 123 58
589.932741 -72.9285603 781.466752 133 123 58
588.058693 -75.2545492 785.456244 124 128 56
588.058693 -77.6782104 785.456244 120 125 53
586.653158 -80.005288 788.448363 113 123 47
586.653158 -82.4211727 788.448363 112 122 46
584.77911 -84.6875421 792.437855 111 121 45
584.77911 -87.0930582 792.437855 111 121 45
583.373574 -89.370885 795.429974 112 124 47
583.373574 -91.7686246 795.429974 108 121 44
582.43655 -94.0708694 797.42472 100 112 40
582.43655 -96.4634247 797.42472 97 108 36
582.43655 -98.8559801 797.42472 93 105 33
582.43655 -101.248535 797.42472 92 104 31
582.43655 -103.641091 797.42472 91 100 31
582.43655 -106.033646 797.42472 89 98 29
582.43655 -108.426201 797.42472 82 90 26
582.43655 -110.818757 797.42472 78 87 22
584.310598 -113.485251 793.435228 75 83 21
584.310598 -115.888175 793.435228 74 82 20
587.121669 -118.733112 787.45099 73 80 21
587.121669 -121.151589 787.45099 73 80 21
589.932741 -124.043185 781.466752 75 76 23
589.932741 -126.477215 781.466752 75 76 23
596.023397 -130.003733 768.500903 78 68 26
596.023397 -132.47146 768.500903 81 72 30
600.240005 -135.742185 759.524546 110 88 57
588.365903 -70.4945306 779.599466 152 132 77
588.365903 -72.9285603 779.599466 131 111 56
586.965373 -75.2815594 782.597551 126 125 59
586.965373 -77.7078127 782.597551 121 120 54
585.564843 -80.0374825 785.595636 111 119 44
585.564843 -82.4559594 785.595636 110 118 43
583.230626 -84.6875421 790.592444 109 119 43
583.230626 -87.0930582 790.592444 112 122 46
581.830096 -89.370885 793.590528 105 117 42
581.830096 -91.7686246 793.590528 97 109 34
580.896409 -94.0708694 795.589251 97 108 38
580.896409 -96.4634247 795.589251 97 108 38
580.896409 -98.8559801 795.589251 93 104 35
580.896409 -101.248535 795.589251 91 102 32
580.896409 -103.641091 795.589251 89 97 31
580.896409 -106.033646 795.589251 83 92 25
580.896409 -108.426201 795.589251 82 90 26
580.896409 -110.818757 795.589251 81 89 25
583.230626 -113.553735 790.592444 76 83 24
583.230626 -115.959251 790.592444 76 83 24
586.031686 -118.806781 784.596274 73 80 23
586.031686 -121.22785 784.596274 73 80 23
588.832746 -124.122038 778.600104 75 76 26
588.832746 -126.55866 778.600104 77 78 28
593.034336 -129.75162 769.60585 85 71 33
593.034336 -132.211571 769.60585 101 86 48
598.636456 -135.742185 757.613511 120 93 62
590.055287 -70.6473119 770.722729 206 176 127
590.055287 -73.0994868 770.722729 147 116 67
586.333889 -75.3355799 778.733531 127 119 58
586.333889 -77.7670175 778.733531 125 116 55
584.938365 -80.1018715 781.737581 116 118 49
584.938365 -82.5255327 781.737581 113 116 47
583.077666 -84.7996786 785.742982 114 121 48
583.077666 -87.2129711 785.742982 109 116 43
581.216967 -89.4560112 789.748383 99 108 39
581.216967 -91.8589351 789.748383 98 107 38
580.286618 -94.1663642 791.751083 96 104 38
580.286618 -96.5641039 791.751083 97 106 39
580.286618 -98.9618435 791.751083 94 102 36
580.286618 -101.359583 791.751083 91 100 33
580.286618 -103.757323 791.751083 89 97 31
580.286618 -106.155062 791.751083 87 95 29
580.286618 -108.552802 791.751083 82 90 28
580.286618 -110.950542 791.751083 83 91 29
582.612492 -113.690705 786.744332 80 87 30
582.612492 -116.101405 786.744332 78 85 28
585.40354 -118.954119 780.736231 75 81 29
585.40354 -121.380372 780.736231 73 79 27
588.194588 -124.279745 774.72813 79 77 32
588.194588 -126.721551 774.72813 77 76 31
591.450811 -129.75162 767.718679 101 82 48
591.450811 -132.211571 767.718679 112 92 58
590.794299 -73.2215771 763.82483 208 167 124
585.232226 -75.3625901 775.864895 140 117 63
585.232226 -77.7966198 775.864895 135 112 58
584.305213 -80.1662606 777.871572 120 117 54
584.305213 -82.595106 777.871572 119 115 53
582.914695 -84.911815 780.881589 116 117 53
582.914695 -87.332884 780.881589 105 107 43
581.060671 -89.5837006 784.894944 99 103 38
581.060671 -91.994401 784.894944 99 103 38
580.133658 -94.3096065 786.901621 96 102 39
580.133658 -96.7151226 786.901621 95 101 38
579.670152 -99.067707 787.90496 96 102 39
579.670152 -101.470631 787.90496 93 99 35
579.670152 -103.873555 787.90496 88 95 34
579.670152 -106.276479 787.90496 85 93 31
580.133658 -108.742703 786.901621 81 88 29
580.133658 -111.148219 786.901621 82 89 30
582.451189 -113.896158 781.884928 80 87 30
582.451189 -116.314635 781.884928 78 85 28
584.305213 -119.027788 777.871572 78 81 30
584.305213 -121.456633 777.871572 77 80 29
588.013262 -124.516305 769.844862 88 78 41
588.013262 -126.965887 769.844862 98 89 51
590.794299 -129.919695 763.82483 108 85 56
590.794299 -132.384831 763.82483 112 90 61
585.050899 -75.4436207 770.981627 196 163 117
585.050899 -77.8854269 770.981627 147 114 68
583.665387 -80.2306496 773.997609 122 108 54
583.665387 -82.6646794 773.997609 125 111 57
582.279875 -84.9865727 777.013592 116 112 52
582.279875 -87.412826 777.013592 106 102 42
580.894362 -89.7113899 780.029574 99 102 40
580.894362 -92.1298668 780.029574 99 102 40
579.970687 -94.4528488 782.040228 97 103 42
579.970687 -96.8661413 782.040228 96 102 41
579.50885 -99.2265022 783.045556 96 101 43
579.50885 -101.637203 783.045556 94 99 40
579.50885 -104.047903 783.045556 88 93 35
579.50885 -106.458603 783.045556 85 90 31
580.432525 -108.995904 781.034901 84 88 32
580.432525 -111.411789 781.034901 81 86 30
582.279875 -114.101612 777.013592 82 83 32
582.279875 -116.527866 777.013592 82 83 32
583.665387 -119.175126 773.997609 86 82 38
583.665387 -121.609155 773.997609 89 85 41
587.821924 -124.752864 764.949663 106 88 55
587.821924 -127.210223 764.949663 106 88 55
590.592949 -130.171808 758.917699 110 87 59
583.018886 -80.2950386 770.115692 155 126 79
583.018886 -82.7342527 770.115692 130 102 54
581.638379 -85.0613303 773.13764 114 103 48
581.638379 -87.4927679 773.13764 112 101 45
580.257873 -89.7965161 776.159588 102 100 42
580.257873 -92.2201773 776.159588 106 104 45
579.337535 -94.5483436 778.17422 104 107 47
579.337535 -96.9668205 778.17422 100 103 43
578.877366 -99.3323656 779.181536 98 100 45
578.877366 -101.74825 779.181536 98 100 45
578.877366 -104.164135 779.181536 94 97 41
578.877366 -106.58002 779.181536 91 93 38
579.337535 -109.059205 778.17422 90 89 41
579.337535 -111.477682 778.17422 88 86 39
581.178211 -114.170097 774.144956 89 85 41
581.178211 -116.598942 774.144956 88 84 40
583.018886 -119.322464 770.115692 97 84 48
583.018886 -121.761678 770.115692 100 88 51
586.700237 -124.831718 762.057164 110 90 58
584.658212 -82.9777593 761.179298 175 138 96
580.99021 -85.1360879 769.253734 140 116 67
580.99021 -87.5727098 769.253734 136 112 64
579.614709 -89.8816424 772.281647 123 111 58
579.614709 -92.3104878 772.281647 117 105 52
578.697709 -94.6438385 774.300257 109 104 49
578.697709 -97.0674996 774.300257 109 104 49
578.239209 -99.438229 775.309561 103 100 49
578.239209 -101.859298 775.309561 102 99 48
578.239209 -104.280367 775.309561 100 96 48
578.239209 -106.701436 775.309561 98 94 45
579.156209 -109.249106 773.290952 99 93 49
579.156209 -111.675359 773.290952 97 90 47
580.073209 -114.238582 771.272343 103 89 50
580.073209 -116.670019 771.272343 105 91 53
582.824211 -119.54347 765.216516 110 90 56
582.824211 -121.990461 765.216516 112 92 58
580.792198 -85.2482244 764.35058 178 147 105
580.792198 -87.6926227 764.35058 156 124 83
578.964871 -89.9667686 768.395753 146 121 77
578.964871 -92.4007984 768.395753 136 112 68
578.051208 -94.7393333 770.418339 127 109 63
578.051208 -97.1681788 770.418339 119 101 55
577.594376 -99.5440925 771.429632 116 100 58
577.594376 -101.970346 771.429632 116 100 58
577.594376 -104.396599 771.429632 112 98 57
577.594376 -106.822852 771.429632 112 98 57
578.051208 -109.312406 770.418339 115 98 61
578.051208 -111.741251 770.418339 116 99 62
579.421703 -114.375551 767.38446 118 98 64
579.421703 -116.812173 767.38446 117 97 63
582.619524 -119.764477 760.305408 119 94 62
578.308358 -90.0518949 764.501904 158 125 88
578.308358 -92.4911089 764.501904 153 120 83
577.398033 -94.8348281 766.528467 145 117 79
577.398033 -97.2688579 766.528467 146 118 80
576.94287 -99.6499559 767.541749 138 112 75
576.94287 -102.081394 767.541749 132 106 69
576.94287 -104.512831 767.541749 128 104 69
576.94287 -106.944269 767.541749 126 102 66
577.398033 -109.439007 766.528467 123 99 66
