ply
format ascii 1.0
element vertex 777
property float x
property float y
property float z
property uchar red
property uchar green
property uchar blue
end_header
549.841649 -46.2934833 786.582658 231 81 93
549.841649 -48.63938 786.582658 231 81 93
549.841649 -50.9852766 786.582658 228 85 95
549.841649 -53.3311732 786.582658 232 89 98
548.958021 -55.6645238 788.641039 234 96 104
548.958021 -58.0052361 788.641039 240 102 110
548.958021 -60.3459485 788.641039 241 112 117
548.958021 -62.6866608 788.641039 248 119 124
546.570962 -36.9677536 788.9077 193 74 75
546.570962 -39.3032817 788.9077 175 56 58
544.81038 -41.6759293 793.032416 223 32 60
544.81038 -44.0010887 793.032416 228 36 64
544.81038 -46.3262481 793.032416 231 35 64
544.81038 -48.6514075 793.032416 230 33 63
545.690671 -50.9787444 790.970058 228 34 65
545.690671 -53.3090881 790.970058 232 37 69
545.250526 -55.6331588 792.001237 231 40 68
545.250526 -57.9609104 792.001237 228 36 64
543.93009 -60.25429 795.094775 229 43 69
543.93009 -62.5742651 795.094775 231 45 71
543.049799 -64.860957 797.157133 229 50 74
543.049799 -67.1757478 797.157133 229 50 74
541.729363 -69.4250609 800.25067 227 50 74
541.729363 -71.7320753 800.25067 231 54 77
540.408927 -73.958059 803.344207 225 55 78
540.408927 -76.2572969 803.344207 227 57 80
539.088491 -78.4599513 806.437744 216 62 82
539.088491 -80.7514127 806.437744 223 69 89
543.313624 -34.700451 791.248652 250 237 207
542.436671 -37.0545389 793.314987 196 63 71
542.436671 -39.374514 793.314987 186 52 61
541.998194 -41.703769 794.348155 240 37 67
541.998194 -44.021152 794.348155 244 41 71
541.998194 -46.3385349 794.348155 247 41 72
541.998194 -48.6559179 794.348155 242 36 67
541.998194 -50.9733008 794.348155 243 35 69
541.998194 -53.2906838 794.348155 245 36 70
541.12124 -55.5955208 796.41449 245 36 70
541.12124 -57.9077194 796.41449 245 36 70
540.682764 -60.2084608 797.447657 247 41 72
540.682764 -62.5180673 797.447657 247 41 72
539.80581 -64.7943906 799.513993 248 45 75
539.80581 -67.0988128 799.513993 250 47 76
537.613427 -69.2941054 804.679831 246 45 74
537.613427 -71.5855669 804.679831 246 45 74
537.17495 -73.8500181 805.712998 245 49 74
537.17495 -76.1388874 805.712998 249 54 79
536.297996 -78.3633677 807.779334 240 59 79
536.297996 -80.6470527 807.779334 232 51 71
540.943251 -34.7345637 791.535199 246 229 198
540.069635 -37.0834673 793.605512 199 56 66
540.069635 -39.3982581 793.605512 193 51 60
539.196019 -41.7316087 795.675824 247 39 68
539.196019 -44.0412152 795.675824 247 39 68
539.196019 -46.3508217 795.675824 251 41 73
539.196019 -48.6604282 795.675824 249 38 71
538.759211 -50.968946 796.71098 251 35 69
538.759211 -53.2759604 796.71098 246 31 65
538.322403 -55.5767017 797.746137 249 34 68
538.322403 -57.881124 797.746137 253 38 72
536.57517 -60.1397169 801.886761 251 39 72
536.57517 -62.4337705 801.886761 251 39 72
534.827938 -64.6612577 806.027386 252 40 73
534.827938 -66.9449427 806.027386 245 33 66
533.080706 -69.1413241 810.168011 252 42 72
533.080706 -71.4146405 810.168011 250 40 70
533.080706 -73.6879569 810.168011 248 41 70
533.080706 -75.9612733 810.168011 250 43 72
532.643897 -78.2023951 811.203167 246 53 77
532.643897 -80.4731194 811.203167 240 47 71
532.643897 -82.7438436 811.203167 202 100 100
532.643897 -85.0145679 811.203167 255 215 215
539.014693 -34.7516201 790.792557 238 215 187
538.579553 -37.0834673 791.829701 206 56 68
538.579553 -39.3982581 791.829701 209 59 71
537.709274 -41.7316087 793.903991 250 40 70
537.709274 -44.0412152 793.903991 251 41 71
536.838995 -46.3590129 795.978281 254 41 74
536.838995 -48.6634351 795.978281 249 36 69
535.968716 -50.9656799 798.05257 246 31 65
535.968716 -53.2649178 798.05257 248 33 67
534.663298 -55.5453367 801.164004 246 29 64
534.663298 -57.8367982 801.164004 238 21 55
533.35788 -60.0938877 804.275439 249 34 68
533.35788 -62.3775727 804.275439 253 38 72
532.487601 -64.6279745 806.349728 255 37 74
532.487601 -66.9064752 806.349728 237 19 56
531.182182 -69.1194982 809.461163 252 35 69
531.182182 -71.3902224 809.461163 253 36 71
531.182182 -73.6609467 809.461163 250 40 70
531.182182 -75.9316709 809.461163 251 41 71
531.182182 -78.2023951 809.461163 244 46 74
531.182182 -80.4731194 809.461163 241 42 71
530.747043 -82.7064648 810.498308 207 95 101
530.747043 -84.9745969 810.498308 255 211 217
537.089471 -34.7686764 790.053891 222 197 171
536.656001 -37.0979315 791.093024 207 52 68
536.656001 -39.4101301 791.093024 207 52 68
535.789059 -41.7408886 793.171291 248 36 66
535.789059 -44.0479029 793.171291 249 37 67
534.488646 -46.3672041 796.288691 255 37 70
534.488646 -48.666442 796.288691 251 34 66
533.188234 -50.9624138 799.406091 251 32 67
533.188234 -53.2538753 799.406091 254 34 69
531.887821 -55.5265177 802.523491 250 33 65
531.887821 -57.8102027 802.523491 250 33 65
531.02088 -60.0709731 804.601758 255 39 71
531.02088 -62.3494738 804.601758 255 37 70
530.153938 -64.5946913 806.680025 246 28 66
530.153938 -66.8680077 806.680025 241 23 60
529.720467 -69.1194982 807.719158 243 25 62
529.720467 -71.3902224 807.719158 255 39 76
529.720467 -73.6609467 807.719158 255 42 75
529.720467 -75.9316709 807.719158 249 36 69
529.286996 -78.1702006 808.758292 238 37 66
529.286996 -80.4383327 808.758292 238 37 66
528.853525 -82.669086 809.797425 216 96 104
528.853525 -84.934626 809.797425 255 209 217
535.59939 -34.7686764 788.278081 206 180 155
534.735785 -37.1123957 790.360324 205 48 64
534.735785 -39.4220022 790.360324 202 44 61
533.872181 -41.7501685 792.442568 249 34 68
533.872181 -44.0545907 792.442568 248 33 67
532.144972 -46.3753953 796.607056 250 30 66
532.144972 -48.6694489 796.607056 251 32 67
531.281367 -50.9613251 798.6893 248 28 64
531.281367 -53.2501944 798.6893 249 29 65
529.554158 -55.5139717 802.853788 251 32 65
529.554158 -57.7924724 802.853788 255 38 71
528.690554 -60.0480585 804.936032 254 40 69
528.690554 -62.3213749 804.936032 253 39 68
528.258752 -64.5780497 805.977154 248 30 63
528.258752 -66.8487739 805.977154 250 33 65
527.395147 -69.0758463 808.059398 249 31 66
527.395147 -71.3413863 808.059398 255 39 74
527.395147 -73.6069262 808.059398 254 41 74
527.395147 -75.8724662 808.059398 254 41 74
527.395147 -78.1380061 808.059398 239 41 69
527.395147 -80.4035461 808.059398 237 39 67
527.395147 -82.669086 808.059398 212 88 95
527.395147 -84.934626 808.059398 255 206 214
534.109308 -32.4538856 786.50227 255 247 223
534.109308 -34.7686764 786.50227 203 168 144
533.249041 -37.1123957 788.588491 209 49 67
533.249041 -39.4220022 788.588491 215 55 73
531.528506 -41.7687283 792.760933 252 37 71
531.528506 -44.0679662 792.760933 247 32 66
529.807972 -46.3835865 796.933376 249 29 65
529.807972 -48.6724558 796.933376 253 33 68
528.947705 -50.9591477 799.019597 251 32 67
528.947705 -53.2428327 799.019597 248 28 64
527.22717 -55.5014257 803.192039 255 38 71
527.22717 -57.7747421 803.192039 255 41 74
526.797037 -60.0366012 804.23515 255 40 70
526.797037 -62.3073254 804.23515 253 37 66
525.936769 -64.5447664 806.321371 251 34 66
525.936769 -66.8103064 806.321371 251 34 66
525.936769 -69.0758463 806.321371 251 34 68
525.936769 -71.3413863 806.321371 255 41 75
525.936769 -73.6069262 806.321371 255 44 77
525.936769 -75.8724662 806.321371 255 46 79
525.936769 -78.1380061 806.321371 249 49 77
525.936769 -80.4035461 806.321371 247 46 75
525.936769 -82.669086 806.321371 208 81 90
525.936769 -84.934626 806.321371 255 204 213
532.190761 -32.4735341 785.771559 255 240 222
532.190761 -34.7857328 785.771559 206 152 134
530.905366 -37.1413241 788.906856 210 43 63
530.905366 -39.4457463 788.906856 219 51 71
529.191506 -41.7872881 793.087253 248 35 70
529.191506 -44.0813417 793.087253 251 38 74
527.477646 -46.3917777 797.267649 252 34 71
527.477646 -48.6754627 797.267649 252 34 71
526.620716 -50.9569703 799.357848 251 34 68
526.620716 -53.235471 799.357848 246 29 64
525.335321 -55.4951527 802.493145 255 36 66
525.335321 -57.7658769 802.493145 255 38 69
524.478391 -60.0136866 804.583344 255 36 66
524.478391 -62.2792265 804.583344 250 31 62
524.478391 -64.5447664 804.583344 253 33 66
524.478391 -66.8103064 804.583344 250 31 64
524.049926 -69.0540204 805.628443 251 34 68
524.049926 -71.3169682 805.628443 255 38 73
524.049926 -73.579916 805.628443 252 40 73
524.049926 -75.8428638 805.628443 255 46 79
524.049926 -78.1058116 805.628443 250 47 76
524.049926 -80.3687594 805.628443 250 47 76
524.049926 -82.6317072 805.628443 209 77 87
524.049926 -84.894655 805.628443 255 203 213
530.702348 -32.4735341 783.997737 255 218 204
530.702348 -34.7857328 783.997737 205 132 118
528.995162 -37.1557883 788.186088 215 41 63
528.995162 -39.4576183 788.186088 221 47 69
526.861181 -41.8058479 793.421527 247 34 69
526.861181 -44.0947172 793.421527 254 41 76
524.300402 -46.4081601 799.704053 252 34 71
524.300402 -48.6814765 799.704053 249 31 68
523.873606 -50.9537042 800.751141 254 32 68
523.873606 -53.2244284 800.751141 254 32 68
523.020013 -55.4826067 802.845316 252 35 65
523.020013 -57.7481466 802.845316 253 37 66
523.020013 -60.0136866 802.845316 255 36 66
523.020013 -62.2792265 802.845316 249 30 61
522.593217 -64.5281248 803.892404 249 30 63
522.593217 -66.7910726 803.892404 251 32 65
522.166421 -69.0321945 804.939492 255 39 71
522.166421 -71.2925502 804.939492 255 40 72
522.166421 -73.5529058 804.939492 250 38 68
522.166421 -75.8132614 804.939492 255 45 75
522.166421 -78.0736171 804.939492 243 40 69
522.166421 -80.3339727 804.939492 239 36 66
522.166421 -82.5943284 804.939492 207 76 86
522.166421 -84.854684 804.939492 255 203 213
530.06419 -30.1168542 780.125763 247 223 188
528.788807 -32.4931826 783.272992 255 203 190
528.788807 -34.8027892 783.272992 199 117 103
526.663168 -37.1847167 788.518373 217 40 63
526.663168 -39.4813624 788.518373 218 41 64
524.537529 -41.8244077 793.763755 249 34 70
524.537529 -44.1080927 793.763755 253 37 74
522.411891 -46.4122557 799.009136 252 34 71
522.411891 -48.6829799 799.009136 248 30 67
521.561635 -50.9515268 801.107289 252 30 66
521.561635 -53.2170667 801.107289 252 30 66
521.136508 -55.4763337 802.156365 255 39 70
521.136508 -57.7392815 802.156365 255 38 69
521.136508 -60.0022292 802.156365 254 35 65
521.136508 -62.265177 802.156365 249 30 61
520.71138 -64.5114832 803.205442 250 31 64
520.71138 -66.7718389 803.205442 251 32 65
520.71138 -69.0321945 803.205442 255 43 75
520.71138 -71.2925502 803.205442 255 43 75
520.71138 -73.5529058 803.205442 254 41 72
520.71138 -75.8132614 803.205442 255 44 74
520.71138 -78.0736171 803.205442 243 40 69
520.71138 -80.3339727 803.205442 241 38 68
520.71138 -82.5943284 803.205442 211 78 86
520.71138 -84.854684 803.205442 255 202 211
528.572439 -30.1168542 778.347964 244 214 179
526.878603 -32.5128311 782.552223 255 190 180
526.878603 -34.8198455 782.552223 202 110 100
524.337848 -37.2136451 788.858613 219 37 62
524.337848 -39.5051065 788.858613 225 43 68
521.373635 -41.8615273 796.216067 252 36 73
521.373635 -44.1348437 796.216067 247 32 68
520.103257 -46.4204469 799.369262 250 30 68
520.103257 -48.6859868 799.369262 246 25 63
519.679798 -50.9504381 800.420327 249 29 65
519.679798 -53.2133859 800.420327 251 32 67
519.256339 -55.4700607 801.471392 255 35 68
519.256339 -57.7304163 801.471392 255 37 70
519.256339 -59.9907719 801.471392 251 32 65
519.256339 -62.2511276 801.471392 254 34 67
518.83288 -64.4948416 802.522457 255 35 68
518.83288 -66.7526051 802.522457 251 32 65
518.83288 -69.0103686 802.522457 250 33 65
518.83288 -71.2681321 802.522457 255 40 72
518.83288 -73.5258956 802.522457 255 40 74
518.83288 -75.7836591 802.522457 254 39 73
518.83288 -78.0414226 802.522457 249 41 73
518.83288 -80.2991861 802.522457 247 39 71
518.83288 -82.5569496 802.522457 211 75 82
518.83288 -84.814713 802.522457 255 202 209
526.658898 -30.1390948 777.623218 242 207 171
524.971737 -32.5324797 781.835432 255 184 176
524.971737 -34.8369019 781.835432 204 107 99
521.597413 -37.2570377 790.25986 219 35 61
521.597413 -39.5407227 790.25986 226 42 68
519.48846 -41.8708072 795.525128 251 33 70
519.48846 -44.1415314 795.525128 245 27 64
518.223089 -46.4245425 798.684288 246 26 61
518.223089 -48.6874903 798.684288 248 28 64
517.801298 -50.9493494 799.737342 251 32 65
517.801298 -53.209705 799.737342 254 34 67
517.379508 -55.4637877 800.790395 255 35 68
517.379508 -57.7215511 800.790395 253 33 66
517.379508 -59.9793146 800.790395 244 27 59
517.379508 -62.2370781 800.790395 249 32 64
517.379508 -64.4948416 800.790395 255 39 71
517.379508 -66.7526051 800.790395 252 35 67
517.379508 -69.0103686 800.790395 252 35 67
517.379508 -71.2681321 800.790395 255 39 71
517.379508 -73.5258956 800.790395 255 42 73
517.379508 -75.7836591 800.790395 252 37 68
517.379508 -78.0414226 800.790395 250 43 72
517.379508 -80.2991861 800.790395 243 36 65
517.379508 -82.5569496 800.790395 208 70 75
517.379508 -84.814713 800.790395 255 200 206
525.168817 -30.1390948 775.847408 243 201 167
523.068207 -32.5521282 781.122618 255 181 169
523.068207 -34.8539582 781.122618 199 98 87
519.287111 -37.2859661 790.617997 222 36 60
519.287111 -39.5644668 790.617997 233 46 71
517.186501 -41.889367 795.893207 253 38 72
517.186501 -44.1549069 795.893207 247 32 66
516.346258 -46.4286381 798.003292 251 34 66
516.346258 -48.6889937 798.003292 249 32 64
515.926136 -50.9482607 799.058334 253 36 68
515.926136 -53.2060242 799.058334 255 39 71
515.506014 -55.4575146 800.113376 253 36 68
515.506014 -57.712686 800.113376 253 36 68
515.506014 -59.9678573 800.113376 249 35 64
515.506014 -62.2230287 800.113376 255 41 70
515.506014 -64.4782 800.113376 254 40 69
515.506014 -66.7333714 800.113376 249 35 64
515.506014 -68.9885427 800.113376 254 40 69
515.506014 -71.243714 800.113376 255 42 71
515.506014 -73.4988854 800.113376 254 40 69
515.506014 -75.7540567 800.113376 251 36 65
515.926136 -78.0414226 799.058334 250 43 72
515.926136 -80.2991861 799.058334 243 36 65
515.926136 -82.5569496 799.058334 209 71 77
515.926136 -84.814713 799.058334 255 202 207
523.678735 -30.1390948 774.071597 243 201 167
520.331109 -32.6110737 782.527843 255 179 168
520.331109 -34.9051273 782.527843 197 94 83
516.56503 -37.3293587 792.041119 226 40 62
516.56503 -39.6000829 792.041119 233 47 68
515.30967 -41.8986469 795.212211 250 38 68
515.30967 -44.1615947 795.212211 251 39 70
514.472764 -46.4327337 797.326272 253 38 70
514.472764 -48.6904972 797.326272 249 35 66
514.05431 -50.947172 798.383303 253 36 68
514.05431 -53.2023433 798.383303 253 36 68
513.635857 -55.4512416 799.440334 253 38 70
513.635857 -57.7038208 799.440334 254 39 71
513.635857 -59.9564 799.440334 255 42 71
513.635857 -62.2089792 799.440334 255 42 71
513.635857 -64.4615584 799.440334 252 37 66
513.635857 -66.7141376 799.440334 252 37 66
513.635857 -68.9667168 799.440334 253 39 68
513.635857 -71.219296 799.440334 255 41 70
514.05431 -73.4988854 798.383303 253 39 68
514.05431 -75.7540567 798.383303 253 39 68
514.05431 -78.0092281 798.383303 252 42 72
514.05431 -80.2643994 798.383303 247 38 67
514.05431 -82.5195707 798.383303 210 72 78
514.05431 -84.7747421 798.383303 255 202 207
522.188653 -30.1390948 772.295787 251 206 173
518.437591 -32.6307222 781.82696 255 177 165
518.437591 -34.9221836 781.82696 198 93 81
514.269745 -37.3582871 792.417153 231 42 65
514.269745 -39.6238271 792.417153 234 46 68
513.019392 -41.9172067 795.594211 252 40 71
513.019392 -44.1749702 795.594211 251 39 70
511.769038 -46.4450205 798.771269 253 38 70
511.769038 -48.6950075 798.771269 251 36 67
511.769038 -50.9449946 798.771269 252 35 67
511.769038 -53.1949816 798.771269 250 33 65
511.769038 -55.4449686 798.771269 255 41 70
511.769038 -57.6949557 798.771269 255 42 71
511.769038 -59.9449427 798.771269 253 39 68
511.769038 -62.1949298 798.771269 253 39 68
511.769038 -64.4449168 798.771269 255 41 70
511.769038 -66.6949038 798.771269 252 37 66
511.769038 -68.9448909 798.771269 253 37 66
511.769038 -71.1948779 798.771269 251 34 64
512.602607 -73.4988854 796.65323 253 37 66
512.602607 -75.7540567 796.65323 255 38 68
512.602607 -78.0092281 796.65323 248 43 69
512.602607 -80.2643994 796.65323 240 35 61
512.602607 -82.5195707 796.65323 209 72 73
512.602607 -84.7747421 796.65323 255 201 202
520.283455 -30.1613355 771.580984 253 203 172
516.547411 -32.6503707 781.130055 255 174 163
516.547411 -34.93924 781.130055 200 93 81
512.396251 -37.3727513 791.740134 230 39 63
512.396251 -39.6356991 791.740134 237 46 70
510.320671 -41.9450464 797.045173 249 31 66
510.320671 -44.1950334 797.045173 250 32 67
509.905555 -46.4491161 798.106181 249 32 64
509.905555 -48.696511 798.106181 250 33 65
509.905555 -50.9439059 798.106181 249 30 61
509.905555 -53.1913007 798.106181 255 38 69
509.905555 -55.4386956 798.106181 255 41 71
509.905555 -57.6860905 798.106181 255 39 69
509.905555 -59.9334854 798.106181 251 34 64
509.905555 -62.1808803 798.106181 252 35 65
510.320671 -64.4449168 797.045173 255 39 69
510.320671 -66.6949038 797.045173 249 32 62
510.320671 -68.9448909 797.045173 246 30 59
510.320671 -71.1948779 797.045173 248 31 61
510.320671 -73.4448649 797.045173 247 33 62
510.320671 -75.694852 797.045173 251 36 65
511.150903 -78.0092281 794.923157 247 42 66
511.150903 -80.2643994 794.923157 245 41 64
511.150903 -82.5195707 794.923157 211 74 75
511.150903 -84.7747421 794.923157 255 202 203
518.381594 -27.8739696 770.870159 255 206 175
518.381594 -30.1835761 770.870159 251 202 171
514.247121 -32.6896677 781.500123 255 172 163
514.247121 -34.9733527 781.500123 202 90 80
510.526095 -37.3872155 791.067092 227 34 58
510.526095 -39.6475712 791.067092 236 43 67
508.458858 -41.9543263 796.382074 252 35 69
508.458858 -44.2017212 796.382074 251 34 68
507.631963 -46.4573073 798.508067 252 35 67
507.631963 -48.6995179 798.508067 250 33 65
507.631963 -50.9417284 798.508067 251 32 63
507.631963 -53.183939 798.508067 251 32 63
507.631963 -55.4261496 798.508067 255 36 66
507.631963 -57.6683602 798.508067 248 29 59
507.631963 -59.9105708 798.508067 249 30 61
507.631963 -62.1527814 798.508067 254 35 65
508.458858 -64.4282752 796.382074 251 32 63
508.458858 -66.6756701 796.382074 247 28 58
508.458858 -68.923065 796.382074 253 36 68
508.458858 -71.1704598 796.382074 255 37 70
508.872305 -73.4448649 795.319077 255 41 72
508.872305 -75.694852 795.319077 254 39 71
509.6992 -78.0092281 793.193084 250 43 70
509.6992 -80.2643994 793.193084 247 40 66
509.6992 -82.5195707 793.193084 214 75 74
509.6992 -84.7747421 793.193084 255 202 201
516.89485 -27.8739696 769.098326 255 208 177
516.89485 -30.1835761 769.098326 247 197 166
511.953505 -32.7289647 781.878146 255 172 163
511.953505 -35.0074654 781.878146 199 84 75
509.071054 -37.3872155 789.333041 223 27 52
509.071054 -39.6475712 789.333041 233 38 63
506.188603 -41.9728861 796.787937 254 34 67
506.188603 -44.2150967 796.787937 255 38 71
505.365045 -46.4654985 798.917907 255 40 72
505.365045 -48.7025248 798.917907 251 34 66
505.365045 -50.939551 798.917907 248 30 63
505.365045 -53.1765773 798.917907 244 27 59
505.365045 -55.4136036 798.917907 253 33 64
505.365045 -57.6506299 798.917907 253 33 64
506.188603 -59.9105708 796.787937 251 32 63
506.188603 -62.1527814 796.787937 255 36 66
506.188603 -64.394992 796.787937 254 34 67
506.188603 -66.6372026 796.787937 253 33 66
507.01216 -68.923065 794.657967 255 37 70
507.01216 -71.1704598 794.657967 255 39 72
507.423939 -73.4448649 793.592982 255 43 74
507.423939 -75.694852 793.592982 255 43 74
507.835718 -77.9770335 792.527997 247 40 66
507.835718 -80.2296127 792.527997 242 35 62
508.247496 -82.5195707 791.463012 213 74 73
508.247496 -84.7747421 791.463012 255 201 200
513.767665 -27.9733008 771.594387 255 209 178
513.767665 -30.2725388 771.594387 248 198 167
509.256454 -32.7879102 783.331097 255 165 158
509.256454 -35.0586345 783.331097 193 73 66
507.205903 -37.4016797 788.665965 230 35 57
507.205903 -39.6594432 788.665965 234 39 62
504.745242 -41.9728861 795.067807 251 36 67
504.745242 -44.2150967 795.067807 252 37 68
503.925022 -46.4654985 797.201754 251 36 67
503.925022 -48.7025248 797.201754 252 37 68
503.925022 -50.939551 797.201754 250 33 65
503.925022 -53.1765773 797.201754 251 34 66
503.925022 -55.4136036 797.201754 251 34 66
503.925022 -57.6506299 797.201754 249 32 64
504.745242 -59.9105708 795.067807 248 28 62
504.745242 -62.1527814 795.067807 248 28 62
504.745242 -64.394992 795.067807 251 34 66
504.745242 -66.6372026 795.067807 255 39 71
505.565463 -68.923065 792.93386 249 35 64
505.565463 -71.1704598 792.93386 248 34 63
505.975573 -73.4448649 791.866886 255 43 71
505.975573 -75.694852 791.866886 252 41 69
505.975573 -77.944839 791.866886 249 44 70
505.975573 -80.1948261 791.866886 243 38 64
506.795793 -82.5195707 789.732939 209 70 69
506.795793 -84.7747421 789.732939 255 201 200
511.06227 -28.0477993 773.037395 255 206 175
511.06227 -30.3392607 773.037395 248 198 167
507.386297 -32.8075587 782.658055 255 160 152
507.386297 -35.0756908 782.658055 188 71 62
505.344089 -37.4161439 788.002866 240 51 69
505.344089 -39.6713153 788.002866 236 46 64
503.301882 -41.9728861 793.347677 249 42 69
503.301882 -44.2150967 793.347677 253 46 72
502.484999 -46.4654985 795.485601 249 42 69
502.484999 -48.7025248 795.485601 246 39 65
502.484999 -50.939551 795.485601 245 36 63
502.484999 -53.1765773 795.485601 246 37 64
502.484999 -55.4136036 795.485601 246 39 65
502.484999 -57.6506299 795.485601 234 27 54
503.301882 -59.9105708 793.347677 239 32 58
503.301882 -62.1527814 793.347677 239 32 58
503.301882 -64.394992 793.347677 240 33 59
503.301882 -66.6372026 793.347677 252 45 71
504.118765 -68.923065 791.209753 246 39 65
504.118765 -71.1704598 791.209753 245 38 64
504.527206 -73.4448649 790.14079 250 45 71
504.527206 -75.694852 790.14079 251 47 72
504.527206 -77.944839 790.14079 248 50 73
504.527206 -80.1948261 790.14079 243 45 69
504.935648 -82.4821919 789.071828 204 70 67
504.935648 -84.7347711 789.071828 255 202 200
509.180433 -28.0726321 772.350432 255 205 174
509.180433 -30.3615014 772.350432 248 198 167
505.92625 -32.8075587 780.918039 255 163 151
505.92625 -35.0756908 780.918039 187 73 62
503.892386 -37.4161439 786.272793 229 50 62
503.892386 -39.6713153 786.272793 238 58 71
501.858522 -41.9728861 791.627547 255 58 78
501.858522 -44.2150967 791.627547 255 64 83
501.044976 -46.4654985 793.769449 255 58 80
501.044976 -48.7025248 793.769449 255 59 81
501.858522 -50.9417284 791.627547 255 67 89
501.858522 -53.183939 791.627547 255 67 89
501.858522 -55.4261496 791.627547 255 67 89
501.858522 -57.6683602 791.627547 255 68 90
501.858522 -59.9105708 791.627547 255 69 91
501.858522 -62.1527814 791.627547 255 68 90
501.858522 -64.394992 791.627547 255 61 83
501.858522 -66.6372026 791.627547 255 65 87
502.672067 -68.923065 789.485645 255 61 82
502.672067 -71.1704598 789.485645 255 62 83
503.07884 -73.4448649 788.414695 255 62 80
503.07884 -75.694852 788.414695 255 61 79
503.07884 -77.944839 788.414695 251 61 78
503.07884 -80.1948261 788.414695 243 53 69
503.485613 -82.4821919 787.343744 202 73 66
503.485613 -84.7347711 787.343744 255 204 198
507.707037 -28.0726321 770.594508 255 215 184
507.707037 -30.3615014 770.594508 247 197 166
504.871308 -32.7879102 778.105084 255 167 153
504.871308 -35.0586345 778.105084 200 88 74
502.440682 -37.4161439 784.54272 225 56 61
502.440682 -39.6713153 784.54272 237 68 72
500.415161 -41.9728861 789.907417 249 60 73
500.415161 -44.2150967 789.907417 253 64 78
500.415161 -46.4573073 789.907417 253 61 76
500.415161 -48.6995179 789.907417 255 63 78
500.415161 -50.9417284 789.907417 255 67 83
500.415161 -53.183939 789.907417 255 63 78
500.415161 -55.4261496 789.907417 255 63 81
500.415161 -57.6683602 789.907417 255 69 87
500.415161 -59.9105708 789.907417 255 66 83
500.415161 -62.1527814 789.907417 255 62 80
501.22537 -64.4282752 787.761538 255 67 85
501.22537 -66.6756701 787.761538 255 71 89
501.630474 -68.9448909 786.688599 255 76 94
501.630474 -71.1948779 786.688599 255 75 93
501.630474 -73.4448649 786.688599 255 67 81
501.630474 -75.694852 786.688599 255 69 84
502.035578 -77.9770335 785.61566 255 77 90
502.035578 -80.2296127 785.61566 252 65 78
502.440682 -82.5195707 784.54272 205 83 74
502.440682 -84.7747421 784.54272 255 208 199
506.233642 -30.3615014 768.838583 244 195 162
503.409593 -32.7879102 776.363079 255 169 154
503.409593 -35.0586345 776.363079 217 108 92
501.392415 -37.4016797 781.737719 236 72 73
501.392415 -39.6594432 781.737719 240 75 76
499.778672 -41.9543263 786.037431 250 68 77
499.778672 -44.2017212 786.037431 252 71 79
499.778672 -46.4491161 786.037431 251 67 77
499.778672 -48.696511 786.037431 251 67 77
499.778672 -50.9439059 786.037431 252 65 76
499.778672 -53.1913007 786.037431 250 64 75
499.778672 -55.4386956 786.037431 252 63 75
499.778672 -57.6860905 786.037431 252 63 75
499.778672 -59.9334854 786.037431 252 63 75
499.778672 -62.1808803 786.037431 251 62 74
500.182108 -64.4449168 784.962503 249 60 71
500.182108 -66.6949038 784.962503 251 62 74
500.585543 -68.9667168 783.887575 254 63 75
500.585543 -71.219296 783.887575 254 63 75
500.988979 -73.4988854 782.812647 251 62 74
500.988979 -75.7540567 782.812647 249 60 71
500.988979 -78.0092281 782.812647 241 60 69
500.988979 -80.2643994 782.812647 233 52 61
500.988979 -82.5195707 782.812647 218 106 94
500.988979 -84.7747421 782.812647 255 215 202
504.760246 -30.3615014 767.082659 242 193 159
502.349644 -32.7682617 773.544158 255 169 151
502.349644 -35.0415781 773.544158 219 110 92
500.340809 -37.3872155 778.928741 234 73 73
500.340809 -39.6475712 778.928741 239 77 77
498.733742 -41.9450464 783.236408 248 69 75
498.733742 -44.1950334 783.236408 249 71 76
498.733742 -46.4450205 783.236408 248 69 75
498.733742 -48.6950075 783.236408 249 71 76
498.733742 -50.9449946 783.236408 251 70 76
498.733742 -53.1949816 783.236408 250 69 75
498.733742 -55.4449686 783.236408 252 69 76
498.733742 -57.6949557 783.236408 251 68 75
498.733742 -59.9449427 783.236408 252 69 76
498.733742 -62.1949298 783.236408 251 68 75
499.537275 -64.4782 781.082574 250 67 74
499.537275 -66.7333714 781.082574 251 68 75
499.537275 -68.9885427 781.082574 255 69 77
499.537275 -71.243714 781.082574 255 69 77
499.537275 -73.4988854 781.082574 255 72 80
499.537275 -75.7540567 781.082574 255 72 80
499.537275 -78.0092281 781.082574 246 70 75
499.537275 -80.2643994 781.082574 242 66 70
499.939042 -82.5569496 780.005658 234 132 116
499.939042 -84.814713 780.005658 255 221 206
502.486654 -30.4059827 767.484545 241 192 158
500.88626 -32.7682617 771.800165 255 166 148
500.88626 -35.0415781 771.800165 213 105 87
498.885769 -37.3872155 777.194691 237 73 74
498.885769 -39.6475712 777.194691 242 78 79
498.085572 -41.9264866 779.352502 249 71 76
498.085572 -44.1816579 779.352502 248 69 75
498.085572 -46.4368293 779.352502 248 69 75
498.085572 -48.6920006 779.352502 250 72 77
498.085572 -50.947172 779.352502 251 70 74
498.085572 -53.2023433 779.352502 250 69 73
498.085572 -55.4575146 779.352502 252 69 74
498.085572 -57.712686 779.352502 252 69 74
498.085572 -59.9678573 779.352502 254 70 75
498.085572 -62.2230287 779.352502 252 69 74
498.085572 -64.4782 779.352502 254 70 75
498.085572 -66.7333714 779.352502 254 70 75
498.48567 -69.0103686 778.273596 252 69 74
498.48567 -71.2681321 778.273596 252 69 74
498.48567 -73.5258956 778.273596 255 72 76
498.48567 -75.7836591 778.273596 255 73 78
498.48567 -78.0414226 778.273596 251 77 79
498.48567 -80.2991861 778.273596 242 69 71
498.885769 -82.5943284 777.194691 243 150 131
498.885769 -84.854684 777.194691 255 227 208
501.016596 -30.4059827 765.732597 239 192 158
500.219736 -32.7289647 767.894385 255 160 143
500.219736 -35.0074654 767.894385 207 99 81
497.829158 -37.3727513 774.379747 237 70 72
497.829158 -39.6356991 774.379747 244 77 79
497.430728 -41.9079268 775.460641 252 71 77
497.430728 -44.1682824 775.460641 248 67 74
497.032298 -46.4327337 776.541535 248 67 74
497.032298 -48.6904972 776.541535 251 70 76
497.032298 -50.9482607 776.541535 250 69 75
497.032298 -53.2060242 776.541535 250 69 75
497.430728 -55.4700607 775.460641 252 69 74
497.430728 -57.7304163 775.460641 254 70 75
497.430728 -59.9907719 775.460641 254 70 75
497.430728 -62.2511276 775.460641 252 69 74
497.430728 -64.5114832 775.460641 255 72 76
497.430728 -66.7718389 775.460641 255 72 76
497.430728 -69.0321945 775.460641 254 70 75
497.430728 -71.2925502 775.460641 252 69 74
497.430728 -73.5529058 775.460641 252 69 74
497.430728 -75.8132614 775.460641 255 73 78
497.430728 -78.0736171 775.460641 250 81 81
497.430728 -80.3339727 775.460641 240 72 72
497.430728 -82.5943284 775.460641 246 163 141
497.430728 -84.854684 775.460641 255 231 209
500.340059 -30.3615014 761.814885 244 202 166
498.753015 -32.7289647 766.146415 255 165 147
498.753015 -35.0074654 766.146415 207 99 81
496.769209 -37.3582871 771.560826 236 67 69
496.769209 -39.6238271 771.560826 242 73 75
496.372448 -41.8986469 772.643709 250 69 75
496.372448 -44.1615947 772.643709 250 69 75
496.372448 -46.4245425 772.643709 250 67 74
496.372448 -48.6874903 772.643709 249 65 73
496.372448 -50.9504381 772.643709 250 65 71
496.372448 -53.2133859 772.643709 253 67 73
496.372448 -55.4763337 772.643709 254 69 74
496.372448 -57.7392815 772.643709 255 71 76
496.372448 -60.0022292 772.643709 253 67 73
496.372448 -62.265177 772.643709 255 70 75
496.372448 -64.5281248 772.643709 255 70 75
496.372448 -66.7910726 772.643709 253 67 73
496.372448 -69.0540204 772.643709 254 69 74
496.372448 -71.3169682 772.643709 252 66 72
496.372448 -73.579916 772.643709 251 68 73
496.372448 -75.8428638 772.643709 255 73 78
496.372448 -78.1058116 772.643709 245 79 78
496.372448 -80.3687594 772.643709 237 70 70
496.372448 -82.6317072 772.643709 248 172 148
496.372448 -84.894655 772.643709 255 234 209
498.866664 -30.3615014 760.058961 246 209 171
497.286294 -32.7289647 764.398445 255 165 146
497.286294 -35.0074654 764.398445 194 88 69
496.101016 -37.3293587 767.653057 240 73 75
496.101016 -39.6000829 767.653057 238 71 73
495.310831 -41.889367 769.822799 250 67 72
495.310831 -44.1549069 769.822799 250 67 72
495.310831 -46.4204469 769.822799 252 66 72
495.310831 -48.6859868 769.822799 252 66 72
495.310831 -50.9515268 769.822799 251 63 70
495.310831 -53.2170667 769.822799 251 63 70
495.310831 -55.4826067 769.822799 252 64 71
495.310831 -57.7481466 769.822799 255 68 74
495.310831 -60.0136866 769.822799 254 67 73
495.310831 -62.2792265 769.822799 254 67 73
495.310831 -64.5447664 769.822799 251 63 70
495.310831 -66.8103064 769.822799 254 67 73
495.310831 -69.0758463 769.822799 252 64 71
495.310831 -71.3413863 769.822799 252 64 71
495.310831 -73.6069262 769.822799 254 69 74
495.310831 -75.8724662 769.822799 255 70 75
495.310831 -78.1380061 769.822799 242 78 79
495.310831 -80.4035461 769.822799 235 71 72
495.310831 -82.669086 769.822799 255 189 165
497.393268 -30.3615014 758.303036 242 212 172
496.60642 -32.6896677 760.476755 255 175 150
496.60642 -34.9733527 760.476755 183 96 70
495.032725 -37.3148945 764.824193 214 70 61
495.032725 -39.5882109 764.824193 217 73 65
494.639301 -41.8708072 765.911053 238 65 64
494.639301 -44.1415314 765.911053 236 62 62
494.639301 -46.4122557 765.911053 236 61 58
494.639301 -48.6829799 765.911053 238 63 61
494.639301 -50.9537042 765.911053 243 63 62
494.639301 -53.2244284 765.911053 244 64 63
494.639301 -55.4951527 765.911053 244 64 63
494.639301 -57.7658769 765.911053 245 65 64
494.245877 -60.0251439 766.997912 245 65 64
494.245877 -62.293276 766.997912 241 62 61
494.245877 -64.5614081 766.997912 243 61 61
494.245877 -66.8295402 766.997912 247 64 64
494.245877 -69.0976722 766.997912 248 63 66
494.245877 -71.3658043 766.997912 245 60 63
493.852453 -73.6069262 768.084772 244 62 64
493.852453 -75.8724662 768.084772 248 65 67
494.245877 -78.1702006 766.997912 233 79 74
494.245877 -80.4383327 766.997912 236 81 76
494.639301 -82.7438436 765.911053 255 214 187
495.919873 -32.6503707 756.547112 255 192 161
495.919873 -34.93924 756.547112 213 150 119
494.352852 -37.2859661 760.902504 223 113 91
494.352852 -39.5644668 760.902504 216 106 84
494.352852 -41.8429675 760.902504 231 95 77
494.352852 -44.1214682 760.902504 224 88 70
493.569341 -46.4081601 763.0802 226 83 63
493.569341 -48.6814765 763.0802 226 83 63
493.569341 -50.9547929 763.0802 225 80 63
493.569341 -53.2281093 763.0802 220 75 58
493.569341 -55.5014257 763.0802 223 73 58
493.569341 -57.7747421 763.0802 225 74 59
493.177586 -60.0366012 764.169049 224 71 57
493.177586 -62.3073254 764.169049 223 70 56
493.177586 -64.5780497 764.169049 221 65 54
493.177586 -66.8487739 764.169049 221 65 54
493.177586 -69.1194982 764.169049 222 64 56
493.177586 -71.3902224 764.169049 220 62 54
493.177586 -73.6609467 764.169049 220 62 56
493.177586 -75.9316709 764.169049 224 65 59
493.177586 -78.2023951 764.169049 205 85 68
493.177586 -80.4731194 764.169049 231 110 94
493.177586 -82.7438436 764.169049 255 237 204
494.446477 -34.93924 754.791187 247 208 171
493.666304 -37.2570377 756.972861 255 196 161
493.666304 -39.5407227 756.972861 255 195 160
492.88613 -41.8429675 759.154534 255 190 153
492.88613 -44.1214682 759.154534 255 186 150
492.88613 -46.3999689 759.154534 255 184 150
492.88613 -48.6784696 759.154534 255 184 150
492.88613 -50.9569703 759.154534 255 183 150
492.88613 -53.235471 759.154534 255 178 145
492.105957 -55.5014257 761.336207 255 173 141
492.105957 -57.7747421 761.336207 255 171 139
492.105957 -60.0480585 761.336207 255 168 137
492.105957 -62.3213749 761.336207 255 166 136
491.715871 -64.5780497 762.427044 255 164 134
491.715871 -66.8487739 762.427044 255 164 134
491.715871 -69.1194982 762.427044 255 160 131
491.715871 -71.3902224 762.427044 255 158 129
492.105957 -73.6879569 761.336207 255 154 129
492.105957 -75.9612733 761.336207 250 150 125
492.105957 -78.2345897 761.336207 231 161 130
492.105957 -80.5079061 761.336207 255 189 158
492.196245 -41.8244077 755.220913 253 203 161
492.196245 -44.1080927 755.220913 251 201 158
491.419409 -46.3999689 757.406564 255 201 161
491.419409 -48.6784696 757.406564 255 205 164
491.419409 -50.9569703 757.406564 255 203 161
491.419409 -53.235471 757.406564 255 208 166
491.419409 -55.5139717 757.406564 255 207 168
491.419409 -57.7924724 757.406564 255 209 169
490.642573 -60.0480585 759.592214 255 203 164
490.642573 -62.3213749 759.592214 255 203 164
490.642573 -64.5946913 759.592214 255 208 169
490.642573 -66.8680077 759.592214 255 209 170
490.642573 -69.1413241 759.592214 255 210 173
490.642573 -71.4146405 759.592214 255 210 173
490.642573 -73.6879569 759.592214 255 212 174
490.642573 -75.9612733 759.592214 255 213 175
