ply
format ascii 1.0
element vertex 1057
property float x
property float y
property float z
property uchar red
property uchar green
property uchar blue
end_header
523.315515 -22.5643631 740.968528 188 142 116
523.315515 -24.9335891 740.968528 190 144 119
522.907073 -27.3276479 742.03749 189 143 117
522.907073 -29.6942817 742.03749 186 140 115
522.907073 -32.0609155 742.03749 188 142 116
522.907073 -34.4275494 742.03749 189 143 117
522.498632 -36.8086474 743.106452 189 143 117
522.498632 -39.1726891 743.106452 190 144 119
522.09019 -41.5460107 744.175415 190 144 117
522.09019 -43.9074602 744.175415 190 144 117
522.09019 -46.2689097 744.175415 193 145 118
522.09019 -48.6303593 744.175415 195 147 120
522.498632 -50.9928975 743.106452 196 148 121
522.498632 -53.3569392 743.106452 195 147 120
522.907073 -55.7272539 742.03749 196 148 121
522.907073 -58.0938877 742.03749 195 147 120
522.907073 -60.4605215 742.03749 196 148 121
522.907073 -62.8271554 742.03749 196 148 121
523.315515 -65.2104308 740.968528 196 148 121
523.315515 -67.5796568 740.968528 194 146 119
523.315515 -69.9488828 740.968528 196 148 121
523.315515 -72.3181088 740.968528 195 147 120
523.723956 -74.714345 739.899566 195 147 120
523.723956 -77.0861631 739.899566 195 147 120
523.723956 -79.4579812 739.899566 194 146 117
523.723956 -81.8297994 739.899566 195 147 118
523.315515 -84.1642387 740.968528 195 147 118
523.315515 -86.5334647 740.968528 195 147 118
523.315515 -88.9026907 740.968528 196 149 119
523.315515 -91.2719166 740.968528 195 147 118
523.723956 -93.68889 739.899566 195 147 118
523.723956 -96.0607082 739.899566 194 146 117
523.723956 -98.4325263 739.899566 194 146 119
523.723956 -100.804344 739.899566 194 146 119
524.132398 -103.234279 738.830604 194 146 119
524.132398 -105.608689 738.830604 192 144 117
524.540839 -108.0464 737.761641 193 145 118
524.540839 -110.423402 737.761641 190 142 115
524.949281 -112.868889 736.692679 189 141 114
524.949281 -115.248484 736.692679 190 142 115
524.540839 -117.554409 737.761641 191 140 114
524.540839 -119.931412 737.761641 189 138 112
523.723956 -122.150708 739.899566 185 137 110
523.723956 -124.522526 739.899566 185 137 110
523.315515 -126.810306 740.968528 182 136 108
523.315515 -129.179532 740.968528 181 135 107
522.907073 -131.459537 742.03749 181 135 107
522.907073 -133.82617 742.03749 178 133 105
522.907073 -136.192804 742.03749 179 134 106
522.907073 -138.559438 742.03749 177 132 104
522.907073 -140.926072 742.03749 178 133 105
522.907073 -143.292706 742.03749 177 132 104
522.907073 -145.65934 742.03749 176 130 103
522.907073 -148.025973 742.03749 177 132 104
523.315515 -150.502566 740.968528 175 129 101
523.315515 -152.871792 740.968528 174 128 100
523.723956 -155.356162 739.899566 175 129 101
523.723956 -157.72798 739.899566 175 129 101
523.723956 -160.099798 739.899566 173 127 99
523.723956 -162.471616 739.899566 173 127 99
523.315515 -164.717922 740.968528 173 130 101
523.315515 -167.087148 740.968528 172 129 100
523.315515 -169.456374 740.968528 174 131 103
523.315515 -171.8256 740.968528 174 131 103
522.907073 -174.058946 742.03749 173 130 101
522.907073 -176.425579 742.03749 177 134 105
522.907073 -178.792213 742.03749 178 135 106
522.907073 -181.158847 742.03749 178 135 106
522.907073 -183.525481 742.03749 177 133 107
522.907073 -185.892115 742.03749 176 132 106
522.907073 -188.258749 742.03749 177 131 106
522.907073 -190.625382 742.03749 178 132 107
523.315515 -193.148634 740.968528 178 132 107
523.315515 -195.51786 740.968528 177 131 106
523.723956 -198.048888 739.899566 177 131 106
523.723956 -200.420706 739.899566 176 130 105
523.723956 -202.792524 739.899566 176 132 106
523.723956 -205.164342 739.899566 174 131 105
524.132398 -207.708331 738.830604 178 132 107
524.132398 -210.082741 738.830604 179 134 108
524.540839 -212.634507 737.761641 179 134 108
524.540839 -215.011509 737.761641 181 135 109
524.949281 -217.571051 736.692679 181 135 109
524.949281 -219.950645 736.692679 178 132 107
525.766164 -222.705687 734.554755 177 133 107
525.766164 -225.090466 734.554755 179 135 109
526.991488 -228.053969 731.347868 179 135 109
526.991488 -230.446524 731.347868 179 135 109
527.808371 -233.235264 729.209944 179 134 108
527.808371 -235.633003 729.209944 181 135 109
529.033695 -238.640572 726.003057 181 135 109
529.033695 -241.046088 726.003057 181 135 109
529.850578 -243.868526 723.865132 182 136 110
529.850578 -246.279227 723.865132 183 137 112
529.850578 -248.689927 723.865132 183 137 112
529.850578 -251.100627 723.865132 182 136 110
530.667461 -253.948986 721.727208 182 136 110
530.667461 -256.364871 721.727208 179 134 108
530.667461 -258.780756 721.727208 178 134 110
530.667461 -261.196641 721.727208 179 135 111
530.667461 -263.612525 721.727208 180 136 112
530.667461 -266.02841 721.727208 180 136 112
530.667461 -268.444295 721.727208 179 135 111
530.667461 -270.860179 721.727208 178 134 110
530.667461 -273.276064 721.727208 179 135 111
530.667461 -275.691949 721.727208 179 135 111
531.075903 -278.352584 720.658246 181 134 111
531.075903 -280.771061 720.658246 179 133 110
531.484344 -283.439473 719.589284 181 134 111
531.484344 -285.860542 719.589284 182 135 112
531.892786 -288.536731 718.520321 181 134 111
531.892786 -290.960392 718.520321 181 134 111
532.301227 -293.644357 717.451359 179 133 110
532.301227 -296.07061 717.451359 178 132 109
532.301227 -298.496863 717.451359 178 134 110
532.301227 -300.923117 717.451359 176 132 108
532.301227 -303.34937 717.451359 176 132 108
532.301227 -305.775623 717.451359 177 133 109
531.075903 -307.374307 720.658246 179 133 110
531.075903 -309.792783 720.658246 179 133 110
530.25902 -311.649178 722.79617 179 133 110
530.25902 -314.062471 722.79617 181 134 111
528.625254 -315.330862 727.072019 179 133 110
528.625254 -317.733786 727.072019 181 134 111
526.991488 -318.971072 731.347868 179 133 110
526.991488 -321.363627 731.347868 179 133 110
525.357722 -322.569807 735.623717 178 132 109
525.357722 -324.951993 735.623717 179 133 110
524.540839 -326.730624 737.761641 181 134 111
524.540839 -329.107626 737.761641 181 134 111
524.132398 -331.177666 738.830604 178 132 109
524.132398 -333.552076 738.830604 181 134 111
524.132398 -335.926487 738.830604 178 132 109
524.132398 -338.300897 738.830604 177 131 108
523.723956 -340.357976 739.899566 177 131 108
523.723956 -342.729794 739.899566 178 132 109
523.723956 -345.101612 739.899566 177 131 108
523.723956 -347.47343 739.899566 176 130 107
524.132398 -350.172948 738.830604 177 131 108
524.132398 -352.547359 738.830604 176 130 107
524.132398 -354.921769 738.830604 176 130 107
524.132398 -357.296179 738.830604 176 130 107
524.540839 -360.008658 737.761641 177 131 108
524.540839 -362.38566 737.761641 176 130 107
525.357722 -365.449168 735.623717 175 128 105
525.357722 -367.831355 735.623717 176 130 107
525.766164 -370.561978 734.554755 177 131 108
525.766164 -372.946757 734.554755 177 131 108
526.174605 -375.685157 733.485792 174 130 107
526.174605 -378.072528 733.485792 174 130 107
526.991488 -381.17751 731.347868 174 130 107
526.991488 -383.570066 731.347868 174 130 107
526.991488 -385.962621 731.347868 173 129 105
526.991488 -388.355177 731.347868 173 129 105
526.174605 -390.009384 733.485792 171 127 103
526.174605 -392.396755 733.485792 172 128 104
525.766164 -394.409767 734.554755 172 128 102
525.766164 -396.794546 734.554755 172 128 102
524.949281 -398.42024 736.692679 172 128 102
524.949281 -400.799834 736.692679 172 128 102
524.132398 -402.409975 738.830604 170 126 102
524.132398 -404.784385 738.830604 171 127 103
523.723956 -406.768884 739.899566 170 126 102
523.723956 -409.140702 739.899566 170 126 102
523.723956 -411.51252 739.899566 170 126 102
523.723956 -413.884338 739.899566 170 126 102
523.723956 -416.256156 739.899566 172 128 104
523.723956 -418.627974 739.899566 171 127 103
523.723956 -420.999793 739.899566 170 126 102
523.723956 -423.371611 739.899566 169 125 101
524.132398 -426.154077 738.830604 170 126 102
524.132398 -428.528488 738.830604 169 125 101
524.132398 -430.902898 738.830604 169 125 99
524.132398 -433.277308 738.830604 169 125 99
524.132398 -435.651719 738.830604 170 126 100
524.132398 -438.026129 738.830604 171 127 101
523.723956 -439.974338 739.899566 170 126 100
523.723956 -442.346156 739.899566 169 125 99
523.723956 -444.717974 739.899566 170 126 102
523.723956 -447.089792 739.899566 169 125 101
523.315515 -449.02504 740.968528 169 125 101
523.315515 -451.394266 740.968528 170 126 102
523.315515 -453.763492 740.968528 169 125 101
523.315515 -456.132718 740.968528 169 125 101
522.907073 -458.055005 742.03749 165 121 97
522.907073 -460.421639 742.03749 166 122 98
522.907073 -462.788273 742.03749 166 122 98
522.907073 -465.154907 742.03749 165 121 97
522.907073 -467.521541 742.03749 163 122 97
522.907073 -469.888175 742.03749 163 122 97
522.907073 -472.254808 742.03749 165 121 97
522.907073 -474.621442 742.03749 164 120 96
522.907073 -476.988076 742.03749 163 118 97
522.907073 -479.35471 742.03749 166 122 100
522.907073 -481.721344 742.03749 165 121 99
522.907073 -484.087978 742.03749 163 118 97
522.498632 -485.976567 743.106452 160 118 96
522.498632 -488.340609 743.106452 160 118 96
522.498632 -523.801234 743.106452 157 115 92
522.498632 -526.165276 743.106452 157 115 92
522.907073 -529.05402 742.03749 159 117 95
522.907073 -531.420654 742.03749 160 118 96
523.723956 -534.847063 739.899566 158 116 91
523.723956 -537.218881 739.899566 160 118 94
523.723956 -539.590699 739.899566 160 118 94
523.723956 -541.962517 739.899566 157 115 90
524.540839 -545.414848 737.761641 158 116 91
524.540839 -547.79185 737.761641 159 117 93
524.949281 -550.714293 736.692679 161 120 95
524.949281 -553.093888 736.692679 161 120 95
525.357722 -556.024107 735.623717 159 117 95
525.357722 -558.406294 735.623717 159 117 95
525.766164 -561.344289 734.554755 157 115 92
525.766164 -563.729068 734.554755 155 113 91
526.174605 -566.674841 733.485792 158 116 93
526.174605 -569.062212 733.485792 155 113 91
526.174605 -571.449583 733.485792 157 113 91
526.174605 -573.836954 733.485792 158 114 92
525.766164 -575.652963 734.554755 158 114 92
525.766164 -578.037742 734.554755 157 113 91
525.766164 -580.422521 734.554755 158 114 92
525.766164 -582.807299 734.554755 159 115 93
525.766164 -585.192078 734.554755 159 115 93
525.766164 -587.576857 734.554755 159 115 93
525.766164 -589.961636 734.554755 160 116 93
525.766164 -592.346415 734.554755 162 118 94
524.949281 -593.546996 736.692679 158 114 90
524.949281 -595.92659 736.692679 157 113 89
524.949281 -598.306185 736.692679 155 113 91
524.949281 -600.685779 736.692679 154 112 90
524.949281 -603.065374 736.692679 155 113 91
524.949281 -605.444969 736.692679 158 116 93
524.540839 -607.216911 737.761641 157 115 92
524.540839 -609.593914 737.761641 157 115 92
524.540839 -611.970916 737.761641 157 115 92
524.540839 -614.347919 737.761641 158 116 93
524.540839 -616.724921 737.761641 158 116 93
524.540839 -619.101923 737.761641 158 116 93
524.132398 -620.855721 738.830604 157 113 91
524.132398 -623.230131 738.830604 156 111 90
524.132398 -625.604541 738.830604 157 113 91
524.132398 -627.978952 738.830604 158 114 92
524.132398 -630.353362 738.830604 158 114 92
524.132398 -632.727772 738.830604 157 113 91
523.723956 -634.463425 739.899566 157 113 91
523.723956 -636.835243 739.899566 157 113 91
523.723956 -639.207061 739.899566 155 110 91
523.723956 -641.578879 739.899566 155 110 91
524.132398 -644.599824 738.830604 155 110 91
524.132398 -646.974234 738.830604 156 111 92
524.132398 -649.348644 738.830604 158 113 94
524.132398 -651.723055 738.830604 158 113 94
524.132398 -654.097465 738.830604 159 115 95
524.132398 -656.471875 738.830604 159 115 95
524.540839 -659.510965 737.761641 160 116 97
524.540839 -661.887967 737.761641 163 118 99
524.540839 -664.26497 737.761641 164 120 98
524.540839 -666.641972 737.761641 163 118 97
524.132398 -668.343927 738.830604 162 118 94
524.132398 -670.718337 738.830604 164 120 96
524.132398 -673.092747 738.830604 168 121 98
524.132398 -675.467157 738.830604 166 119 96
524.132398 -677.841568 738.830604 166 119 96
524.132398 -680.215978 738.830604 166 119 96
523.723956 -681.899787 739.899566 167 120 97
523.723956 -684.271606 739.899566 167 120 97
523.723956 -686.643424 739.899566 168 121 98
523.723956 -689.015242 739.899566 167 120 97
523.723956 -691.38706 739.899566 168 121 100
523.723956 -693.758878 739.899566 168 121 100
523.723956 -696.130696 739.899566 167 123 102
523.723956 -698.502514 739.899566 167 123 102
524.132398 -701.585671 738.830604 167 123 100
524.132398 -703.960081 738.830604 166 122 98
524.540839 -707.051014 737.761641 166 119 96
524.540839 -709.428016 737.761641 167 120 97
524.540839 -711.805018 737.761641 168 121 98
524.540839 -714.182021 737.761641 167 120 97
524.949281 -717.285914 736.692679 167 120 97
524.949281 -719.665509 736.692679 167 120 97
521.790392 422.850122 739.150957 253 201 171
521.790392 420.480896 739.150957 254 202 172
521.790392 418.11167 739.150957 254 202 172
521.790392 415.742444 739.150957 253 201 171
521.790392 413.373218 739.150957 254 202 172
521.790392 411.003992 739.150957 254 202 172
521.790392 408.634766 739.150957 253 201 171
521.790392 406.26554 739.150957 253 201 171
521.790392 403.896314 739.150957 254 202 172
521.790392 401.527088 739.150957 253 201 171
521.790392 399.157862 739.150957 252 198 168
521.790392 396.788636 739.150957 252 198 168
522.197165 394.905646 738.080006 252 198 168
522.197165 392.533828 738.080006 253 199 170
522.197165 390.162009 738.080006 253 199 170
522.197165 387.790191 738.080006 253 199 170
523.01071 386.370107 735.938105 253 199 170
523.01071 383.993105 735.938105 251 197 167
523.824256 382.557468 733.796203 252 198 166
523.824256 380.175281 733.796203 255 200 169
524.231029 378.258593 732.725252 252 198 166
524.231029 375.873814 732.725252 255 200 169
524.637802 373.949349 731.654302 255 200 169
524.637802 371.561978 731.654302 255 200 169
525.451347 370.084867 729.5124 253 201 169
525.451347 367.692312 729.5124 252 200 168
527.485212 367.549484 724.157646 255 204 171
527.485212 365.143968 724.157646 254 202 170
527.485212 362.738452 724.157646 252 200 168
527.485212 360.332936 724.157646 252 200 168
527.485212 357.92742 724.157646 253 199 168
527.485212 355.521904 724.157646 255 200 169
528.298757 353.985173 722.015744 253 199 168
528.298757 351.574472 722.015744 252 198 166
528.298757 349.163772 722.015744 253 199 168
528.298757 346.753072 722.015744 253 199 168
528.298757 344.342371 722.015744 255 200 169
528.298757 341.931671 722.015744 251 197 165
527.485212 338.683291 724.157646 250 196 164
527.485212 336.277775 724.157646 252 198 166
524.231029 330.563015 732.725252 252 198 166
524.231029 328.178236 732.725252 252 198 166
522.603937 324.159573 737.009056 253 196 165
522.603937 321.785163 737.009056 253 196 165
522.197165 319.007465 738.080006 254 198 164
522.197165 316.635647 738.080006 250 194 161
522.197165 314.263829 738.080006 250 194 161
522.197165 311.892011 738.080006 253 197 163
522.197165 309.520193 738.080006 250 194 161
522.197165 307.148375 738.080006 253 197 163
521.790392 304.388823 739.150957 252 195 164
521.790392 302.019597 739.150957 249 193 162
521.383619 299.267821 740.221908 251 192 160
521.383619 296.901187 740.221908 253 195 162
521.383619 294.534553 740.221908 252 193 161
521.383619 292.16792 740.221908 252 193 161
520.570073 274.888226 742.36381 252 193 161
520.570073 272.526777 742.36381 252 193 161
520.570073 270.165327 742.36381 251 192 160
520.570073 267.803878 742.36381 252 193 161
521.383619 266.134947 740.221908 253 194 164
521.383619 263.768314 740.221908 252 193 163
521.383619 261.40168 740.221908 251 190 161
521.383619 259.035046 740.221908 250 189 159
521.790392 257.004303 739.150957 253 189 159
521.790392 254.635077 739.150957 253 189 159
522.603937 252.927264 737.009056 252 188 157
522.603937 250.552854 737.009056 253 189 159
522.197165 247.852921 738.080006 252 188 157
522.197165 245.481103 738.080006 252 188 157
521.790392 10.6048007 739.150957 124 95 73
521.790392 8.23557468 739.150957 126 98 75
521.383619 5.80522578 740.221908 130 100 76
521.383619 3.43859194 740.221908 133 103 79
521.383619 1.07195811 740.221908 147 110 86
521.383619 -1.29467572 740.221908 158 121 97
520.976846 -3.71206387 741.292859 171 127 101
520.976846 -6.07610555 741.292859 177 133 107
520.976846 -8.44014723 741.292859 185 137 110
520.976846 -10.8041889 741.292859 187 139 112
520.976846 -13.1682306 741.292859 189 141 114
520.976846 -15.5322723 741.292859 187 139 112
521.383619 -17.8611126 740.221908 187 139 112
521.383619 -20.2277464 740.221908 188 140 113
521.383619 -22.5943802 740.221908 186 141 113
521.383619 -24.961014 740.221908 189 143 115
521.383619 -27.3276479 740.221908 186 140 115
521.383619 -29.6942817 740.221908 186 140 115
520.570073 -65.160506 742.36381 197 149 122
520.570073 -67.5219555 742.36381 195 147 120
521.383619 -69.9270569 740.221908 196 148 121
521.383619 -72.2936907 740.221908 196 148 121
521.383619 -74.6603245 740.221908 195 147 120
521.383619 -77.0269584 740.221908 194 146 119
521.383619 -79.3935922 740.221908 195 147 120
521.383619 -81.760226 740.221908 196 148 121
521.383619 -84.1268599 740.221908 194 146 117
521.383619 -86.4934937 740.221908 195 147 118
521.383619 -88.8601275 740.221908 195 147 118
521.383619 -91.2267614 740.221908 195 147 118
521.383619 -93.5933952 740.221908 195 147 118
521.383619 -95.960029 740.221908 194 146 117
521.790392 -98.3795946 739.150957 194 146 119
521.790392 -100.748821 739.150957 193 145 118
522.197165 -103.176163 738.080006 193 145 118
522.197165 -105.547981 738.080006 193 145 118
523.01071 -108.0464 735.938105 193 145 118
523.01071 -110.423402 735.938105 192 144 117
523.417483 -112.868889 734.867154 189 141 114
523.417483 -115.248484 734.867154 192 144 117
523.01071 -117.554409 735.938105 190 142 115
523.01071 -119.931412 735.938105 189 141 114
522.197165 -122.150708 738.080006 186 138 111
522.197165 -124.522526 738.080006 185 137 110
521.383619 -126.726269 740.221908 183 137 110
521.383619 -129.092903 740.221908 183 137 110
520.976846 -131.370315 741.292859 181 135 107
520.976846 -133.734356 741.292859 178 133 105
520.570073 -136.003992 742.36381 179 134 106
520.570073 -138.365441 742.36381 178 133 105
520.570073 -140.726891 742.36381 178 133 105
520.570073 -143.088341 742.36381 177 132 104
520.976846 -145.554565 741.292859 177 132 104
520.976846 -147.918606 741.292859 177 132 104
521.383619 -150.392607 740.221908 177 132 104
521.383619 -152.759241 740.221908 177 132 104
521.790392 -155.241018 739.150957 176 130 103
521.790392 -157.610244 739.150957 175 129 101
521.383619 -159.859143 740.221908 175 129 101
521.383619 -162.225776 740.221908 175 129 101
521.383619 -164.59241 740.221908 174 131 103
521.383619 -166.959044 740.221908 174 131 103
521.383619 -169.325678 740.221908 177 134 105
521.383619 -171.692312 740.221908 176 132 104
521.383619 -174.058946 740.221908 174 131 103
521.383619 -176.425579 740.221908 176 132 104
520.976846 -178.651148 741.292859 178 135 106
520.976846 -181.01519 741.292859 177 134 105
520.976846 -183.379232 741.292859 178 132 107
520.976846 -185.743273 741.292859 178 132 107
521.383619 -188.258749 740.221908 178 132 107
521.383619 -190.625382 740.221908 178 132 107
521.383619 -192.992016 740.221908 178 132 107
521.383619 -195.35865 740.221908 179 134 108
521.383619 -197.725284 740.221908 178 132 107
521.383619 -200.091918 740.221908 177 131 106
521.790392 -202.625538 739.150957 177 131 106
521.790392 -204.994764 739.150957 176 130 105
522.197165 -207.536161 738.080006 178 132 107
522.197165 -209.907979 738.080006 177 131 106
522.603937 -212.457152 737.009056 178 132 107
522.603937 -214.831562 737.009056 181 135 109
523.01071 -217.388512 735.938105 181 135 109
523.01071 -219.765514 735.938105 181 135 109
523.417483 -222.33024 734.867154 181 135 109
523.417483 -224.709835 734.867154 179 134 108
524.231029 -227.475245 732.725252 179 134 108
524.231029 -229.860024 732.725252 181 135 109
525.451347 -232.839079 729.5124 181 135 109
525.451347 -235.231635 729.5124 182 136 110
527.078439 -238.437296 725.228597 182 136 110
527.078439 -240.84022 725.228597 182 136 110
527.078439 -243.243144 725.228597 181 135 109
527.078439 -245.646068 725.228597 182 136 110
527.485212 -248.262637 724.157646 181 135 109
527.485212 -250.668153 724.157646 182 136 110
527.485212 -253.073669 724.157646 181 134 111
527.485212 -255.479185 724.157646 182 135 112
527.485212 -257.884701 724.157646 182 135 112
527.485212 -260.290217 724.157646 183 137 114
527.485212 -262.695733 724.157646 181 134 111
527.485212 -265.101249 724.157646 181 134 111
527.485212 -267.506766 724.157646 182 135 112
527.485212 -269.912282 724.157646 182 135 112
528.298757 -272.796931 722.015744 183 137 114
528.298757 -275.207631 722.015744 182 135 112
528.70553 -277.863083 720.944793 183 137 114
528.70553 -280.276375 720.944793 183 137 114
529.519076 -283.189538 718.802892 182 135 112
529.519076 -285.608015 718.802892 181 134 111
529.519076 -288.026492 718.802892 181 134 111
529.519076 -290.444969 718.802892 179 133 110
530.332622 -293.384053 716.66099 179 133 110
530.332622 -295.807714 716.66099 179 133 110
529.925849 -297.965887 717.731941 178 134 110
529.925849 -300.386956 717.731941 179 135 111
529.519076 -302.537353 718.802892 178 134 110
529.519076 -304.95583 718.802892 176 132 108
528.70553 -306.822593 720.944793 179 133 110
528.70553 -309.235886 720.944793 179 133 110
527.485212 -310.806055 724.157646 179 133 110
527.485212 -313.211571 724.157646 181 134 111
526.264893 -314.758412 727.370498 179 133 110
526.264893 -317.156151 727.370498 179 133 110
524.231029 -318.096843 732.725252 178 132 109
524.231029 -320.481622 732.725252 181 134 111
523.01071 -321.976619 735.938105 179 133 110
523.01071 -324.353621 735.938105 179 133 110
522.603937 -326.428845 737.009056 182 133 111
522.603937 -328.803256 737.009056 182 133 111
522.197165 -330.870704 738.080006 180 131 109
522.197165 -333.242522 738.080006 182 133 111
522.197165 -335.61434 738.080006 178 132 109
522.197165 -337.986158 738.080006 177 131 108
522.197165 -340.357976 738.080006 176 130 107
522.197165 -342.729794 738.080006 176 130 107
522.197165 -345.101612 738.080006 176 130 107
522.197165 -347.47343 738.080006 176 130 107
522.197165 -349.845249 738.080006 176 130 107
522.197165 -352.217067 738.080006 177 131 108
522.197165 -354.588885 738.080006 178 129 107
522.197165 -356.960703 738.080006 178 129 107
522.603937 -359.670589 737.009056 177 131 108
522.603937 -362.045 737.009056 176 130 107
523.01071 -364.762663 735.938105 176 130 107
523.01071 -367.139665 735.938105 175 128 105
523.417483 -369.865104 734.867154 177 131 108
523.417483 -372.244699 734.867154 177 131 108
523.824256 -374.977915 733.796203 174 130 107
523.824256 -377.360102 733.796203 173 129 105
524.231029 -380.101094 732.725252 172 128 104
524.231029 -382.485873 732.725252 174 130 107
524.231029 -384.870652 732.725252 173 129 105
524.231029 -387.255431 732.725252 172 128 104
524.231029 -389.640209 732.725252 172 128 104
524.231029 -392.024988 732.725252 172 128 104
523.417483 -393.66105 734.867154 172 128 104
523.417483 -396.040645 734.867154 172 128 104
522.603937 -397.661154 737.009056 174 127 104
522.603937 -400.035564 737.009056 174 127 104
522.197165 -402.025248 738.080006 174 127 104
522.197165 -404.397066 738.080006 173 126 103
522.197165 -406.768884 738.080006 170 126 102
522.197165 -409.140702 738.080006 169 125 101
521.790392 -411.117424 739.150957 169 125 101
521.790392 -413.48665 739.150957 169 125 101
521.790392 -415.855876 739.150957 171 127 103
521.790392 -418.225102 739.150957 171 127 103
522.197165 -420.999793 738.080006 171 127 103
522.197165 -423.371611 738.080006 172 128 104
522.197165 -425.743429 738.080006 174 127 104
522.197165 -428.115247 738.080006 170 124 101
522.197165 -430.487065 738.080006 170 124 101
522.197165 -432.858883 738.080006 171 125 102
522.197165 -435.230701 738.080006 171 125 102
522.197165 -437.60252 738.080006 170 124 101
522.197165 -439.974338 738.080006 169 125 101
522.197165 -442.346156 738.080006 169 125 101
521.790392 -444.286588 739.150957 167 123 100
521.790392 -446.655814 739.150957 170 126 102
521.790392 -449.02504 739.150957 169 125 101
521.790392 -451.394266 739.150957 170 126 102
521.383619 -453.321738 740.221908 169 125 101
521.383619 -455.688372 740.221908 167 123 100
521.383619 -458.055005 740.221908 164 120 96
521.383619 -460.421639 740.221908 166 122 98
521.383619 -462.788273 740.221908 163 122 97
521.383619 -465.154907 740.221908 163 122 97
521.383619 -467.521541 740.221908 162 121 96
521.383619 -469.888175 740.221908 162 121 96
520.976846 -471.792317 741.292859 162 121 96
520.976846 -474.156359 741.292859 161 120 95
520.976846 -476.5204 741.292859 159 117 95
520.976846 -478.884442 741.292859 163 122 99
520.570073 -480.775623 742.36381 163 118 97
520.570073 -483.137073 742.36381 164 120 98
520.976846 -528.529317 741.292859 161 119 97
520.976846 -530.893359 741.292859 161 119 97
521.383619 -533.787288 740.221908 160 118 96
521.383619 -536.153922 740.221908 158 116 93
521.790392 -539.055628 739.150957 158 116 93
521.790392 -541.424854 739.150957 154 112 90
522.197165 -544.334336 738.080006 159 115 93
522.197165 -546.706154 738.080006 159 115 93
522.603937 -549.623412 737.009056 160 116 95
522.603937 -551.997823 737.009056 158 114 92
523.01071 -554.922858 735.938105 157 115 92
523.01071 -557.29986 735.938105 157 115 92
523.824256 -560.78848 733.796203 155 113 91
523.824256 -563.170667 733.796203 158 116 93
524.231029 -566.113847 732.725252 157 115 92
524.231029 -568.498626 732.725252 157 115 92
524.231029 -570.883405 732.725252 157 115 92
524.231029 -573.268184 732.725252 157 115 92
524.231029 -575.652963 732.725252 155 113 91
524.231029 -578.037742 732.725252 155 113 91
523.824256 -579.845974 733.796203 157 114 94
523.824256 -582.228161 733.796203 155 113 93
523.417483 -584.028617 734.867154 158 113 94
523.417483 -586.408212 734.867154 159 115 95
523.01071 -588.200892 735.938105 159 115 93
523.01071 -590.577894 735.938105 159 115 93
523.01071 -592.954897 735.938105 157 113 91
523.01071 -595.331899 735.938105 156 111 90
523.01071 -597.708901 735.938105 154 112 90
523.01071 -600.085904 735.938105 155 113 91
522.603937 -601.860439 737.009056 157 115 92
522.603937 -604.234849 737.009056 158 116 93
522.603937 -606.609259 737.009056 158 116 93
522.603937 -608.983669 737.009056 155 113 91
522.603937 -611.35808 737.009056 157 115 92
522.603937 -613.73249 737.009056 157 115 92
522.603937 -616.1069 737.009056 158 115 95
522.603937 -618.481311 737.009056 157 114 94
522.197165 -620.232516 738.080006 157 114 94
522.197165 -622.604334 738.080006 154 112 92
522.197165 -624.976152 738.080006 157 114 94
522.197165 -627.34797 738.080006 154 112 92
522.197165 -629.719788 738.080006 155 113 93
522.197165 -632.091607 738.080006 153 111 91
522.197165 -634.463425 738.080006 153 111 91
522.197165 -636.835243 738.080006 153 111 91
522.197165 -639.207061 738.080006 151 108 91
522.197165 -641.578879 738.080006 152 109 92
522.197165 -643.950697 738.080006 152 109 92
522.197165 -646.322515 738.080006 154 111 94
522.197165 -648.694334 738.080006 155 113 93
522.197165 -651.066152 738.080006 155 113 93
522.197165 -653.43797 738.080006 155 113 93
522.197165 -655.809788 738.080006 157 114 94
522.603937 -658.846285 737.009056 159 116 97
522.603937 -661.220696 737.009056 158 115 95
522.603937 -663.595106 737.009056 163 118 97
522.603937 -665.969516 737.009056 162 117 96
522.603937 -668.343927 737.009056 163 118 97
522.603937 -670.718337 737.009056 164 120 98
522.197165 -672.412515 738.080006 166 119 96
522.197165 -674.784333 738.080006 164 118 95
522.197165 -677.156151 738.080006 166 119 96
522.197165 -679.527969 738.080006 167 120 97
522.197165 -681.899787 738.080006 166 119 96
522.197165 -684.271606 738.080006 166 119 96
522.197165 -686.643424 738.080006 167 120 99
522.197165 -689.015242 738.080006 167 120 99
521.790392 -690.686091 739.150957 166 119 98
521.790392 -693.055317 739.150957 167 120 99
521.790392 -695.424542 739.150957 166 122 100
521.790392 -697.793768 739.150957 166 122 100
521.790392 -700.162994 739.150957 165 121 99
521.790392 -702.53222 739.150957 166 122 100
522.197165 -705.617969 738.080006 164 120 98
522.197165 -707.989787 738.080006 164 120 98
522.603937 -711.083312 737.009056 168 121 98
522.603937 -713.457722 737.009056 167 120 97
523.01071 -716.559023 735.938105 168 121 98
523.01071 -718.936026 735.938105 167 120 97
520.265269 422.850122 737.333386 253 201 171
520.265269 420.480896 737.333386 253 201 171
520.265269 418.11167 737.333386 253 201 171
520.265269 415.742444 737.333386 253 201 171
520.265269 413.373218 737.333386 254 202 172
520.265269 411.003992 737.333386 254 202 172
520.265269 408.634766 737.333386 252 200 170
520.265269 406.26554 737.333386 252 200 170
520.265269 403.896314 737.333386 253 199 170
520.265269 401.527088 737.333386 252 198 168
520.265269 399.157862 737.333386 252 198 168
520.265269 396.788636 737.333386 253 199 170
520.670373 394.905646 736.260447 253 199 170
520.670373 392.533828 736.260447 255 200 171
520.670373 390.162009 736.260447 253 199 170
520.670373 387.790191 736.260447 253 199 170
521.075477 385.89424 735.187508 255 200 171
521.075477 383.51983 735.187508 253 199 170
521.885686 382.086785 733.041629 252 198 168
521.885686 379.707191 733.041629 255 200 171
521.885686 377.327596 733.041629 255 200 169
521.885686 374.948001 733.041629 255 202 170
522.695894 373.489035 730.89575 255 203 171
522.695894 371.104256 730.89575 255 200 169
523.100998 369.174607 729.822811 255 202 170
523.100998 366.787236 729.822811 255 202 170
523.911207 365.299756 727.676932 255 202 170
523.911207 362.907201 727.676932 253 199 168
524.721415 361.404168 725.531053 253 199 168
524.721415 359.006429 725.531053 255 200 169
524.721415 356.608689 725.531053 253 199 168
524.721415 354.210949 725.531053 252 198 166
525.531624 352.681995 723.385174 252 198 166
525.531624 350.279071 723.385174 252 198 166
525.531624 347.876147 723.385174 253 199 168
525.531624 345.473223 723.385174 253 199 168
525.936728 343.494323 722.312235 255 200 169
525.936728 341.088807 722.312235 253 199 168
525.936728 338.683291 722.312235 251 197 165
525.936728 336.277775 722.312235 252 198 166
522.695894 330.563015 730.89575 252 198 166
522.695894 328.178236 730.89575 252 198 166
521.075477 324.159573 735.187508 253 196 165
521.075477 321.785163 735.187508 252 195 164
520.670373 319.007465 736.260447 254 197 166
520.670373 316.635647 736.260447 252 195 164
520.670373 314.263829 736.260447 253 195 162
520.670373 311.892011 736.260447 254 196 163
520.670373 309.520193 736.260447 253 195 162
520.670373 307.148375 736.260447 254 196 163
520.265269 304.388823 737.333386 253 195 162
520.265269 302.019597 737.333386 252 193 161
519.860164 299.267821 738.406326 253 195 162
519.860164 296.901187 738.406326 252 193 161
519.860164 294.534553 738.406326 252 193 161
519.860164 292.16792 738.406326 251 192 160
519.049956 274.888226 740.552205 252 191 160
519.049956 272.526777 740.552205 251 190 159
519.049956 270.165327 740.552205 252 188 157
519.049956 267.803878 740.552205 254 191 160
519.860164 266.134947 738.406326 254 191 160
519.860164 263.768314 738.406326 253 189 159
519.860164 261.40168 738.406326 252 188 159
519.860164 259.035046 738.406326 252 188 159
519.860164 256.668412 738.406326 253 189 161
519.860164 254.301778 738.406326 253 189 161
520.670373 252.596558 736.260447 253 189 159
520.670373 250.224739 736.260447 253 189 159
519.860164 247.201877 738.406326 253 189 159
519.860164 244.835243 738.406326 253 189 159
519.860164 10.5384934 738.406326 125 97 74
519.860164 8.17185961 738.406326 128 100 78
519.860164 5.80522578 738.406326 131 101 77
519.860164 3.43859194 738.406326 135 104 80
519.860164 1.07195811 738.406326 147 110 86
519.860164 -1.29467572 738.406326 156 119 95
519.049956 -3.76281819 740.552205 170 124 99
519.049956 -6.12426772 740.552205 179 134 108
519.049956 -27.3773135 740.552205 188 142 114
519.049956 -29.738763 740.552205 189 143 115
519.049956 -79.3292032 740.552205 195 147 120
519.049956 -81.6906527 740.552205 196 148 121
519.049956 -88.7750013 740.552205 195 147 120
519.049956 -91.1364508 740.552205 195 147 120
519.45506 -93.5456478 739.479265 196 148 121
519.45506 -95.9096895 739.479265 193 145 118
519.860164 -98.3266629 738.406326 193 145 118
519.860164 -100.693297 738.406326 190 142 115
520.670373 -103.176163 736.260447 190 142 115
520.670373 -105.547981 736.260447 193 145 118
521.480581 -108.0464 734.114568 193 145 118
521.480581 -110.423402 734.114568 194 146 119
521.885686 -112.868889 733.041629 193 145 118
521.885686 -115.248484 733.041629 194 146 119
521.480581 -117.554409 734.114568 190 142 115
521.480581 -119.931412 734.114568 188 140 113
520.670373 -122.150708 736.260447 186 138 111
520.670373 -124.522526 736.260447 186 138 111
519.45506 -126.642231 739.479265 185 136 112
519.45506 -129.006273 739.479265 183 135 110
519.049956 -131.281093 740.552205 180 132 107
519.049956 -133.642542 740.552205 181 133 108
519.45506 -150.282648 739.479265 177 132 104
519.45506 -152.64669 739.479265 177 132 104
519.860164 -155.125875 738.406326 177 132 104
519.860164 -157.492509 738.406326 175 129 101
519.860164 -159.859143 738.406326 176 130 103
519.860164 -162.225776 738.406326 177 132 104
519.45506 -164.466898 739.479265 177 131 106
519.45506 -166.83094 739.479265 178 132 107
519.049956 -169.064285 740.552205 177 133 107
519.049956 -171.425735 740.552205 176 132 106
519.049956 -187.955882 740.552205 181 135 109
519.049956 -190.317331 740.552205 178 132 107
519.860164 -192.992016 738.406326 175 129 103
519.860164 -195.35865 738.406326 175 129 103
519.860164 -197.725284 738.406326 176 130 105
519.860164 -200.091918 738.406326 177 131 106
519.860164 -202.458552 738.406326 178 132 107
519.860164 -204.825185 738.406326 178 132 107
520.265269 -207.36399 737.333386 177 131 106
520.265269 -209.733216 737.333386 177 131 106
520.670373 -212.279797 736.260447 177 131 106
520.670373 -214.651615 736.260447 179 134 108
520.670373 -217.023433 736.260447 179 134 108
520.670373 -219.395251 736.260447 178 132 107
521.480581 -222.142516 734.114568 181 135 109
521.480581 -224.519519 734.114568 178 132 107
521.885686 -227.089429 733.041629 177 131 106
521.885686 -229.469024 733.041629 182 136 110
522.695894 -232.244803 730.89575 181 135 109
522.695894 -234.629582 730.89575 182 136 110
523.911207 -237.62419 727.676932 183 137 112
523.911207 -240.016745 727.676932 182 136 110
523.911207 -242.409301 727.676932 182 136 110
523.911207 -244.801856 727.676932 183 137 112
524.721415 -247.621701 725.531053 182 136 110
524.721415 -250.019441 725.531053 181 135 109
524.721415 -252.417181 725.531053 181 134 111
524.721415 -254.81492 725.531053 181 134 111
524.721415 -257.21266 725.531053 179 133 110
524.721415 -259.6104 725.531053 182 135 112
524.721415 -262.008139 725.531053 179 133 110
524.721415 -264.405879 725.531053 181 134 111
525.531624 -267.272383 723.385174 181 134 111
525.531624 -269.675307 723.385174 181 134 111
525.531624 -272.078231 723.385174 181 134 111
525.531624 -274.481155 723.385174 181 134 111
525.936728 -277.12883 722.312235 182 135 112
525.936728 -279.534346 722.312235 182 135 112
527.152041 -282.689668 719.093417 183 137 114
527.152041 -285.10296 719.093417 182 135 112
527.557145 -287.771372 718.020477 181 134 111
527.557145 -290.187257 718.020477 181 134 111
527.962249 -292.863445 716.947538 181 134 111
527.962249 -295.281922 716.947538 181 134 111
527.557145 -297.434911 718.020477 179 135 111
527.557145 -299.850796 718.020477 179 135 111
527.152041 -301.996008 719.093417 179 135 111
527.152041 -304.409301 719.093417 178 134 110
525.936728 -305.995023 722.312235 178 134 110
525.936728 -308.400539 722.312235 179 135 111
524.721415 -309.962932 725.531053 179 133 110
524.721415 -312.360672 725.531053 181 134 111
523.100998 -313.61351 729.822811 181 134 111
523.100998 -316.000881 729.822811 179 133 110
521.885686 -317.514024 733.041629 180 132 107
521.885686 -319.893618 733.041629 182 134 109
521.075477 -321.680025 735.187508 182 134 109
521.075477 -324.054435 735.187508 181 133 108
520.670373 -326.127067 736.260447 182 134 109
520.670373 -328.498885 736.260447 180 132 107
520.265269 -330.563741 737.333386 181 133 108
520.265269 -332.932967 737.333386 181 133 108
520.265269 -335.302193 737.333386 177 131 106
520.265269 -337.671419 737.333386 178 132 107
519.860164 -339.723314 738.406326 178 132 107
519.860164 -342.089948 738.406326 177 131 106
519.860164 -344.456581 738.406326 177 131 106
519.860164 -346.823215 738.406326 176 130 105
520.265269 -349.517549 737.333386 177 131 108
520.265269 -351.886775 737.333386 177 131 108
520.265269 -354.256001 737.333386 179 130 108
520.265269 -356.625227 737.333386 178 129 107
521.075477 -359.670589 735.187508 177 131 108
521.075477 -362.045 735.187508 177 131 108
521.075477 -364.41941 735.187508 176 130 107
521.075477 -366.79382 735.187508 176 130 107
521.480581 -369.516668 734.114568 176 132 108
521.480581 -371.89367 734.114568 174 130 107
521.480581 -374.270672 734.114568 173 129 105
521.480581 -376.647675 734.114568 172 128 104
521.885686 -379.383483 733.041629 170 126 102
521.885686 -381.763077 733.041629 173 129 105
521.885686 -384.142672 733.041629 172 128 104
521.885686 -386.522267 733.041629 172 128 104
521.885686 -388.901861 733.041629 173 129 105
521.885686 -391.281456 733.041629 171 127 103
521.480581 -393.286692 734.114568 171 127 103
521.480581 -395.663694 734.114568 171 127 103
520.670373 -397.281611 736.260447 173 126 103
520.670373 -399.653429 736.260447 173 126 103
520.265269 -401.640521 737.333386 171 125 102
520.265269 -404.009746 737.333386 171 125 102
519.860164 -405.989061 738.406326 170 126 102
519.860164 -408.355695 738.406326 170 126 102
519.860164 -410.722329 738.406326 171 127 103
519.860164 -413.088963 738.406326 170 126 102
519.860164 -415.455596 738.406326 171 127 103
519.860164 -417.82223 738.406326 171 127 103
520.265269 -420.594328 737.333386 171 127 103
520.265269 -422.963554 737.333386 170 126 102
520.265269 -425.33278 737.333386 170 124 101
520.265269 -427.702006 737.333386 170 124 101
520.265269 -430.071232 737.333386 170 124 101
520.265269 -432.440458 737.333386 168 121 98
520.265269 -434.809684 737.333386 170 126 102
520.265269 -437.17891 737.333386 169 125 101
520.265269 -439.548136 737.333386 169 125 101
520.265269 -441.917362 737.333386 169 125 101
520.265269 -444.286588 737.333386 169 125 101
520.265269 -446.655814 737.333386 170 126 102
519.860164 -448.58847 738.406326 169 125 101
519.860164 -450.955104 738.406326 169 125 101
519.860164 -453.321738 738.406326 169 125 101
519.860164 -455.688372 738.406326 166 122 98
519.860164 -458.055005 738.406326 166 122 98
519.860164 -460.421639 738.406326 165 121 97
519.45506 -462.33615 739.479265 164 120 96
519.45506 -464.700192 739.479265 164 120 96
519.049956 -466.606926 740.552205 164 120 96
519.049956 -468.968376 740.552205 164 120 96
519.049956 -471.329825 740.552205 165 121 97
519.049956 -473.691275 740.552205 165 121 97
519.049956 -532.727513 740.552205 162 117 96
519.049956 -535.088963 740.552205 159 115 93
519.860164 -538.520556 738.406326 157 113 91
519.860164 -540.88719 738.406326 157 113 91
520.265269 -543.79408 737.333386 158 114 92
520.265269 -546.163306 737.333386 158 114 92
520.670373 -549.077972 736.260447 159 115 93
520.670373 -551.44979 736.260447 158 114 92
521.075477 -554.372233 735.187508 155 113 91
521.075477 -556.746643 735.187508 157 115 92
521.885686 -560.232671 733.041629 157 115 92
521.885686 -562.612266 733.041629 155 113 91
521.885686 -564.991861 733.041629 157 115 92
521.885686 -567.371455 733.041629 157 115 92
522.29079 -570.317227 731.968689 155 113 91
522.29079 -572.699414 731.968689 157 115 92
521.885686 -574.510239 733.041629 157 115 92
521.885686 -576.889834 733.041629 155 113 91
521.885686 -579.269428 733.041629 155 113 91
521.885686 -581.649023 733.041629 154 112 90
521.480581 -583.446887 734.114568 155 113 93
521.480581 -585.823889 734.114568 157 114 94
521.480581 -588.200892 734.114568 157 114 94
521.480581 -590.577894 734.114568 154 112 92
521.075477 -592.362797 735.187508 155 113 93
521.075477 -594.737208 735.187508 155 113 93
521.075477 -597.111618 735.187508 157 114 94
521.075477 -599.486028 735.187508 155 113 93
521.075477 -601.860439 735.187508 152 110 90
521.075477 -604.234849 735.187508 153 111 91
520.670373 -606.001607 736.260447 154 112 92
520.670373 -608.373425 736.260447 154 112 92
520.670373 -610.745243 736.260447 153 111 91
520.670373 -613.117062 736.260447 153 111 91
520.670373 -615.48888 736.260447 154 112 92
520.670373 -617.860698 736.260447 154 112 92
520.670373 -620.232516 736.260447 155 113 93
520.670373 -622.604334 736.260447 154 112 92
520.265269 -624.347763 737.333386 155 113 93
520.265269 -626.716989 737.333386 152 110 90
520.265269 -629.086215 737.333386 154 112 92
520.265269 -631.455441 737.333386 154 112 92
520.265269 -633.824667 737.333386 152 110 90
520.265269 -636.193893 737.333386 152 110 90
520.265269 -638.563119 737.333386 149 109 91
520.265269 -640.932345 737.333386 149 109 91
520.265269 -643.301571 737.333386 149 109 91
520.265269 -645.670797 737.333386 150 110 92
520.265269 -648.040023 737.333386 153 113 92
520.265269 -650.409249 737.333386 154 114 93
520.670373 -653.43797 736.260447 154 114 93
520.670373 -655.809788 736.260447 154 114 93
520.670373 -658.181606 736.260447 160 118 98
520.670373 -660.553424 736.260447 160 118 98
520.670373 -662.925242 736.260447 162 117 96
520.670373 -665.297061 736.260447 160 116 95
520.670373 -667.668879 736.260447 163 116 96
520.670373 -670.040697 736.260447 162 115 95
520.670373 -672.412515 736.260447 163 116 96
520.670373 -674.784333 736.260447 163 116 96
520.670373 -677.156151 736.260447 163 116 96
520.670373 -679.527969 736.260447 164 118 97
520.265269 -681.209187 737.333386 164 118 97
520.265269 -683.578413 737.333386 164 118 97
520.265269 -685.947639 737.333386 166 119 98
520.265269 -688.316865 737.333386 166 119 98
519.860164 -689.985121 738.406326 166 119 98
519.860164 -692.351755 738.406326 164 118 97
519.860164 -694.718389 738.406326 165 121 99
519.860164 -697.085023 738.406326 165 121 99
519.860164 -699.451656 738.406326 165 121 99
519.860164 -701.81829 738.406326 165 121 99
520.265269 -704.901446 737.333386 164 120 98
520.265269 -707.270672 737.333386 164 120 98
520.670373 -710.361605 736.260447 165 121 97
520.670373 -712.733423 736.260447 167 123 100
520.670373 -715.105241 736.260447 169 123 100
520.670373 -717.477059 736.260447 169 123 100
518.33671 422.33278 736.590744 253 201 171
518.33671 419.966147 736.590744 252 200 170
518.33671 417.599513 736.590744 252 200 170
518.33671 415.232879 736.590744 253 201 171
518.33671 412.866245 736.590744 254 202 172
518.33671 410.499611 736.590744 254 202 172
518.33671 408.132977 736.590744 252 200 170
518.33671 405.766344 736.590744 252 200 170
518.33671 403.39971 736.590744 252 198 168
518.33671 401.033076 736.590744 252 198 168
518.740146 399.157862 735.515816 255 200 171
518.740146 396.788636 735.515816 253 199 170
518.740146 394.41941 735.515816 253 199 170
518.740146 392.050184 735.515816 253 199 170
519.143581 390.162009 734.440888 252 198 168
519.143581 387.790191 734.440888 255 200 171
519.547017 385.89424 733.36596 253 199 170
519.547017 383.51983 733.36596 252 198 168
519.950453 381.616102 732.291032 253 199 170
519.950453 379.2391 732.291032 255 200 171
520.353888 377.327596 731.216104 255 201 172
520.353888 374.948001 731.216104 255 201 172
520.353888 372.568407 731.216104 255 200 171
520.353888 370.188812 731.216104 252 198 168
521.160759 368.719477 729.066248 255 200 171
521.160759 366.334699 729.066248 253 199 170
521.160759 363.94992 729.066248 253 199 170
521.160759 361.565141 729.066248 255 200 171
521.160759 359.180362 729.066248 255 200 169
521.160759 356.795583 729.066248 253 199 168
521.160759 354.410804 729.066248 253 199 168
521.160759 352.026025 729.066248 252 198 166
521.564195 350.075639 727.99132 252 198 166
521.564195 347.688268 727.99132 252 198 166
521.564195 345.300897 727.99132 251 197 165
521.564195 342.913526 727.99132 253 199 168
523.177937 342.222251 723.691608 252 198 166
523.177937 339.824511 723.691608 253 199 168
522.371066 336.589092 725.841464 252 198 166
522.371066 334.196537 725.841464 252 198 166
521.160759 330.563015 729.066248 254 197 166
521.160759 328.178236 729.066248 253 196 165
519.950453 324.568044 732.291032 252 195 164
519.950453 322.191042 732.291032 252 195 164
519.143581 319.007465 734.440888 254 195 165
519.143581 316.635647 734.440888 253 194 164
519.143581 314.263829 734.440888 253 194 164
519.143581 311.892011 734.440888 254 195 165
518.740146 309.127275 735.515816 253 195 162
518.740146 306.758049 735.515816 253 195 162
518.740146 304.388823 735.515816 251 192 160
518.740146 302.019597 735.515816 251 192 160
518.33671 299.267821 736.590744 251 192 160
518.33671 296.901187 736.590744 252 193 161
518.33671 294.534553 736.590744 252 193 161
518.33671 292.16792 736.590744 252 193 161
517.529839 289.056924 738.7406 251 192 160
517.529839 286.695474 738.7406 251 192 160
517.529839 284.334025 738.7406 254 193 161
517.529839 281.972575 738.7406 254 193 161
517.933275 279.972938 737.665672 252 191 160
517.933275 277.608896 737.665672 252 191 160
517.933275 275.244855 737.665672 252 191 160
517.933275 272.880813 737.665672 251 190 159
517.933275 270.516771 737.665672 253 189 159
517.933275 268.15273 737.665672 254 191 160
518.33671 266.134947 736.590744 255 192 161
518.33671 263.768314 736.590744 254 191 160
518.33671 261.40168 736.590744 252 188 159
518.33671 259.035046 736.590744 253 189 161
518.33671 256.668412 736.590744 254 190 162
518.33671 254.301778 736.590744 254 190 162
518.740146 252.265851 735.515816 254 191 160
518.740146 249.896625 735.515816 253 189 159
517.529839 246.550832 738.7406 252 188 157
517.529839 244.189383 738.7406 252 188 157
518.33671 10.5384934 736.590744 124 96 71
518.33671 8.17185961 736.590744 129 102 77
518.33671 5.80522578 736.590744 133 100 77
518.33671 3.43859194 736.590744 136 103 80
517.529839 0.960080875 738.7406 148 108 85
517.529839 -1.40136866 738.7406 157 118 95
517.933275 -93.5456478 737.665672 197 146 120
517.933275 -95.9096895 737.665672 197 146 120
518.33671 -98.3266629 736.590744 197 146 120
518.33671 -100.693297 736.590744 197 146 120
519.143581 -103.176163 734.440888 194 144 118
519.143581 -105.547981 734.440888 194 144 118
519.950453 -108.0464 732.291032 193 145 118
519.950453 -110.423402 732.291032 193 145 118
520.353888 -112.868889 731.216104 193 145 118
520.353888 -115.248484 731.216104 194 146 119
519.950453 -117.554409 732.291032 190 142 115
519.950453 -119.931412 732.291032 189 141 114
519.143581 -122.150708 734.440888 187 139 112
519.143581 -124.522526 734.440888 186 138 111
517.933275 -126.642231 737.665672 183 135 108
517.933275 -129.006273 737.665672 182 134 107
517.529839 -154.895588 738.7406 178 133 105
517.529839 -157.257038 738.7406 177 132 104
517.529839 -159.618487 738.7406 178 133 105
517.529839 -161.979937 738.7406 178 133 105
517.529839 -192.678781 738.7406 177 131 108
517.529839 -195.04023 738.7406 177 131 108
517.933275 -197.563482 737.665672 176 130 107
517.933275 -199.927523 737.665672 176 130 107
518.33671 -202.458552 736.590744 177 131 108
518.33671 -204.825185 736.590744 179 133 110
518.33671 -207.191819 736.590744 181 134 111
518.33671 -209.558453 736.590744 179 133 110
518.740146 -212.102442 735.515816 179 133 110
518.740146 -214.471668 735.515816 179 133 110
519.143581 -217.023433 734.440888 179 133 110
519.143581 -219.395251 734.440888 179 133 110
519.143581 -221.767069 734.440888 181 135 109
519.143581 -224.138887 734.440888 181 135 109
519.547017 -226.703613 733.36596 179 134 108
519.547017 -229.078024 733.36596 182 136 110
520.353888 -231.848618 731.216104 181 135 109
